6676817.5 236287.5 116.398
6676817.5 236288.5 116.370
6676817.5 236289.5 116.348
6676817.5 236290.5 116.263
6676817.5 236291.5 116.222
6676817.5 236292.5 116.249
6676817.5 236293.5 116.242
6676817.5 236294.5 116.259
6676817.5 236295.5 116.305
6676817.5 236296.5 116.283
6676817.5 236297.5 116.228
6676817.5 236298.5 116.226
6676817.5 236299.5 116.239
6676817.5 236300.5 116.216
6676817.5 236301.5 116.220
6676817.5 236302.5 116.249
6676817.5 236303.5 116.268
6676817.5 236304.5 116.280
6676817.5 236305.5 116.248
6676817.5 236306.5 116.218
6676817.5 236307.5 116.234
6676817.5 236308.5 116.271
6676817.5 236309.5 116.296
6676817.5 236310.5 116.280
6676817.5 236311.5 116.269
6676817.5 236312.5 116.272
6676817.5 236313.5 116.235
6676817.5 236314.5 116.212
6676817.5 236315.5 116.256
6676817.5 236316.5 116.246
6676817.5 236317.5 116.231
6676817.5 236318.5 116.236
6676817.5 236319.5 116.234
6676817.5 236320.5 116.235
6676817.5 236321.5 116.276
6676817.5 236322.5 116.298
6676817.5 236323.5 116.278
6676817.5 236324.5 116.295
6676817.5 236325.5 116.342
6676817.5 236326.5 116.335
6676817.5 236327.5 116.307
6676817.5 236328.5 116.315
6676817.5 236329.5 116.331
6676817.5 236330.5 116.312
6676817.5 236331.5 116.303
6676817.5 236332.5 116.285
6676817.5 236333.5 116.241
6676817.5 236334.5 116.218
6676817.5 236335.5 116.185
6676817.5 236336.5 116.140
6676817.5 236337.5 116.123
6676817.5 236338.5 116.131
6676817.5 236339.5 116.118
6676817.5 236340.5 116.118
6676817.5 236341.5 116.127
6676817.5 236342.5 116.161
6676817.5 236343.5 116.194
6676817.5 236344.5 116.191
6676817.5 236345.5 116.217
6676817.5 236346.5 116.279
6676817.5 236347.5 116.348
6676817.5 236348.5 116.381
6676817.5 236349.5 116.413
6676817.5 236350.5 116.422
6676817.5 236351.5 116.485
6676817.5 236352.5 116.487
6676817.5 236353.5 116.460
6676817.5 236354.5 116.471
6676817.5 236355.5 116.506
6676817.5 236356.5 116.565
6676817.5 236357.5 116.531
6676817.5 236358.5 116.497
6676817.5 236359.5 116.516
6676817.5 236360.5 116.552
6676817.5 236361.5 116.605
6676817.5 236362.5 116.606
6676817.5 236363.5 116.593
6676817.5 236364.5 116.600
6676817.5 236365.5 116.614
6676817.5 236366.5 116.607
6676817.5 236367.5 116.585
6676817.5 236368.5 116.569
6676817.5 236369.5 116.572
6676817.5 236370.5 116.613
6676817.5 236371.5 116.647
6676817.5 236372.5 116.655
6676817.5 236373.5 116.646
6676817.5 236374.5 116.597
6676817.5 236375.5 116.550
6676817.5 236376.5 116.499
6676817.5 236377.5 116.501
6676817.5 236378.5 116.571
6676817.5 236379.5 116.606
6676817.5 236380.5 116.676
6676817.5 236381.5 116.594
6676817.5 236382.5 116.550
6676817.5 236383.5 116.493
6676817.5 236384.5 116.497
6676817.5 236385.5 116.505
6676817.5 236386.5 116.532
6676817.5 236387.5 116.515
6676817.5 236388.5 116.501
6676817.5 236389.5 116.452
6676817.5 236390.5 116.535
6676817.5 236391.5 116.512
6676817.5 236392.5 116.527
6676817.5 236393.5 116.519
6676817.5 236394.5 116.487
6676817.5 236395.5 116.507
6676817.5 236396.5 116.496
6676817.5 236397.5 116.499
6676817.5 236398.5 116.501
6676817.5 236399.5 116.435
6676817.5 236400.5 116.429
6676817.5 236401.5 116.389
6676817.5 236402.5 116.379
6676817.5 236403.5 116.371
6676817.5 236404.5 116.363
6676817.5 236405.5 116.353
6676817.5 236406.5 116.349
6676817.5 236407.5 116.363
6676817.5 236408.5 116.376
6676817.5 236409.5 116.402
6676817.5 236410.5 116.428
6676817.5 236411.5 116.386
6676817.5 236412.5 116.454
6676817.5 236413.5 116.493
6676817.5 236414.5 116.462
6676817.5 236415.5 116.466
6676817.5 236416.5 116.488
6676817.5 236417.5 116.487
6676817.5 236418.5 116.477
6676817.5 236419.5 116.497
6676817.5 236420.5 116.587
6676817.5 236421.5 116.688
6676817.5 236422.5 116.752
6676817.5 236423.5 116.717
6676817.5 236424.5 116.673
6676817.5 236425.5 116.652
6676817.5 236426.5 116.643
6676817.5 236427.5 116.640
6676817.5 236428.5 116.639
6676817.5 236429.5 116.640
6676817.5 236430.5 116.642
6676817.5 236431.5 116.644
6676817.5 236432.5 116.647
6676817.5 236433.5 116.649
6676817.5 236434.5 116.652
6676817.5 236435.5 116.655
6676817.5 236436.5 116.656
6676817.5 236437.5 116.657
6676817.5 236438.5 116.656
6676817.5 236439.5 116.654
6676817.5 236440.5 116.652
6676817.5 236441.5 116.650
6676817.5 236442.5 116.648
6676817.5 236443.5 116.646
6676817.5 236444.5 116.646
6676817.5 236445.5 116.646
6676817.5 236446.5 116.646
6676817.5 236447.5 116.646
6676817.5 236448.5 116.647
6676817.5 236449.5 116.648
6676817.5 236450.5 116.649
6676817.5 236451.5 116.650
6676817.5 236452.5 116.651
6676817.5 236453.5 116.652
6676817.5 236454.5 116.654
6676817.5 236455.5 116.656
6676817.5 236456.5 116.657
6676817.5 236457.5 116.659
6676817.5 236458.5 116.661
6676817.5 236459.5 116.663
6676817.5 236460.5 116.665
6676817.5 236461.5 116.668
6676817.5 236462.5 116.670
6676817.5 236463.5 116.672
6676817.5 236464.5 116.675
6676817.5 236465.5 116.677
6676817.5 236466.5 116.680
6676817.5 236467.5 116.683
6676817.5 236468.5 116.686
6676817.5 236469.5 116.689
6676817.5 236470.5 116.692
6676817.5 236471.5 116.695
6676817.5 236472.5 116.699
6676817.5 236473.5 116.702
6676817.5 236474.5 116.706
6676817.5 236475.5 116.710
6676817.5 236476.5 116.714
6676817.5 236477.5 116.718
6676817.5 236478.5 116.722
6676817.5 236479.5 116.726
6676816.5 236230.5 115.602
6676816.5 236231.5 115.674
6676816.5 236232.5 115.737
6676816.5 236233.5 115.832
6676816.5 236234.5 115.879
6676816.5 236235.5 115.888
6676816.5 236236.5 115.910
6676816.5 236237.5 115.881
6676816.5 236238.5 115.919
6676816.5 236239.5 115.894
6676816.5 236240.5 115.829
6676816.5 236241.5 115.867
6676816.5 236242.5 115.824
6676816.5 236243.5 115.765
6676816.5 236244.5 115.793
6676816.5 236245.5 115.808
6676816.5 236246.5 115.840
6676816.5 236247.5 115.878
6676816.5 236248.5 115.968
6676816.5 236249.5 116.049
6676816.5 236250.5 116.050
6676816.5 236251.5 116.031
6676816.5 236252.5 116.091
6676816.5 236253.5 116.080
6676816.5 236254.5 116.205
6676816.5 236255.5 116.299
6676816.5 236256.5 116.357
6676816.5 236257.5 116.322
6676816.5 236258.5 116.413
6676816.5 236259.5 116.487
6676816.5 236260.5 116.367
6676816.5 236261.5 116.323
6676816.5 236262.5 116.386
6676816.5 236263.5 116.424
6676816.5 236264.5 116.394
6676816.5 236265.5 116.290
6676816.5 236266.5 116.286
6676816.5 236267.5 116.300
6676816.5 236268.5 116.257
6676816.5 236269.5 116.237
6676816.5 236270.5 116.297
6676816.5 236271.5 116.294
6676816.5 236272.5 116.298
6676816.5 236273.5 116.378
6676816.5 236274.5 116.404
6676816.5 236275.5 116.414
6676816.5 236276.5 116.414
6676816.5 236277.5 116.409
6676816.5 236278.5 116.415
6676816.5 236279.5 116.408
6676816.5 236280.5 116.381
6676816.5 236281.5 116.376
6676816.5 236282.5 116.418
6676816.5 236283.5 116.497
6676816.5 236284.5 116.474
6676816.5 236285.5 116.427
6676816.5 236286.5 116.415
6676816.5 236287.5 116.396
6676816.5 236288.5 116.380
6676816.5 236289.5 116.342
6676816.5 236290.5 116.284
6676816.5 236291.5 116.298
6676816.5 236292.5 116.362
6676816.5 236293.5 116.321
6676816.5 236294.5 116.263
6676816.5 236295.5 116.247
6676816.5 236296.5 116.208
6676816.5 236297.5 116.184
6676816.5 236298.5 116.248
6676816.5 236299.5 116.281
6676816.5 236300.5 116.236
6676816.5 236301.5 116.207
6676816.5 236302.5 116.235
6676816.5 236303.5 116.262
6676816.5 236304.5 116.246
6676816.5 236305.5 116.234
6676816.5 236306.5 116.241
6676816.5 236307.5 116.276
6676816.5 236308.5 116.291
6676816.5 236309.5 116.273
6676816.5 236310.5 116.265
6676816.5 236311.5 116.275
6676816.5 236312.5 116.292
6676816.5 236313.5 116.251
6676816.5 236314.5 116.225
6676816.5 236315.5 116.258
6676816.5 236316.5 116.268
6676816.5 236317.5 116.246
6676816.5 236318.5 116.222
6676816.5 236319.5 116.236
6676816.5 236320.5 116.295
6676816.5 236321.5 116.365
6676816.5 236322.5 116.353
6676816.5 236323.5 116.308
6676816.5 236324.5 116.305
6676816.5 236325.5 116.302
6676816.5 236326.5 116.297
6676816.5 236327.5 116.251
6676816.5 236328.5 116.249
6676816.5 236329.5 116.279
6676816.5 236330.5 116.293
6676816.5 236331.5 116.293
6676816.5 236332.5 116.276
6676816.5 236333.5 116.252
6676816.5 236334.5 116.259
6676816.5 236335.5 116.265
6676816.5 236336.5 116.253
6676816.5 236337.5 116.224
6676816.5 236338.5 116.208
6676816.5 236339.5 116.216
6676816.5 236340.5 116.216
6676816.5 236341.5 116.202
6676816.5 236342.5 116.176
6676816.5 236343.5 116.154
6676816.5 236344.5 116.155
6676816.5 236345.5 116.164
6676816.5 236346.5 116.219
6676816.5 236347.5 116.281
6676816.5 236348.5 116.352
6676816.5 236349.5 116.399
6676816.5 236350.5 116.440
6676816.5 236351.5 116.490
6676816.5 236352.5 116.468
6676816.5 236353.5 116.472
6676816.5 236354.5 116.508
6676816.5 236355.5 116.540
6676816.5 236356.5 116.581
6676816.5 236357.5 116.540
6676816.5 236358.5 116.519
6676816.5 236359.5 116.528
6676816.5 236360.5 116.535
6676816.5 236361.5 116.568
6676816.5 236362.5 116.563
6676816.5 236363.5 116.572
6676816.5 236364.5 116.624
6676816.5 236365.5 116.690
6676816.5 236366.5 116.620
6676816.5 236367.5 116.591
6676816.5 236368.5 116.611
6676816.5 236369.5 116.637
6676816.5 236370.5 116.679
6676816.5 236371.5 116.662
6676816.5 236372.5 116.628
6676816.5 236373.5 116.603
6676816.5 236374.5 116.571
6676816.5 236375.5 116.545
6676816.5 236376.5 116.494
6676816.5 236377.5 116.463
6676816.5 236378.5 116.470
6676816.5 236379.5 116.514
6676816.5 236380.5 116.541
6676816.5 236381.5 116.493
6676816.5 236382.5 116.488
6676816.5 236383.5 116.474
6676816.5 236384.5 116.525
6676816.5 236385.5 116.578
6676816.5 236386.5 116.592
6676816.5 236387.5 116.615
6676816.5 236388.5 116.572
6676816.5 236389.5 116.520
6676816.5 236390.5 116.547
6676816.5 236391.5 116.573
6676816.5 236392.5 116.466
6676816.5 236393.5 116.452
6676816.5 236394.5 116.438
6676816.5 236395.5 116.477
6676816.5 236396.5 116.474
6676816.5 236397.5 116.491
6676816.5 236398.5 116.534
6676816.5 236399.5 116.528
6676816.5 236400.5 116.538
6676816.5 236401.5 116.470
6676816.5 236402.5 116.414
6676816.5 236403.5 116.379
6676816.5 236404.5 116.375
6676816.5 236405.5 116.374
6676816.5 236406.5 116.387
6676816.5 236407.5 116.388
6676816.5 236408.5 116.379
6676816.5 236409.5 116.376
6676816.5 236410.5 116.375
6676816.5 236411.5 116.330
6676816.5 236412.5 116.383
6676816.5 236413.5 116.415
6676816.5 236414.5 116.412
6676816.5 236415.5 116.436
6676816.5 236416.5 116.446
6676816.5 236417.5 116.461
6676816.5 236418.5 116.434
6676816.5 236419.5 116.459
6676816.5 236420.5 116.589
6676816.5 236421.5 116.701
6676816.5 236422.5 116.735
6676816.5 236423.5 116.705
6676816.5 236424.5 116.659
6676816.5 236425.5 116.634
6676816.5 236426.5 116.624
6676816.5 236427.5 116.621
6676816.5 236428.5 116.621
6676816.5 236429.5 116.623
6676816.5 236430.5 116.626
6676816.5 236431.5 116.629
6676816.5 236432.5 116.632
6676816.5 236433.5 116.635
6676816.5 236434.5 116.638
6676816.5 236435.5 116.641
6676816.5 236436.5 116.644
6676816.5 236437.5 116.645
6676816.5 236438.5 116.646
6676816.5 236439.5 116.645
6676816.5 236440.5 116.643
6676816.5 236441.5 116.642
6676816.5 236442.5 116.640
6676816.5 236443.5 116.638
6676816.5 236444.5 116.638
6676816.5 236445.5 116.638
6676816.5 236446.5 116.638
6676816.5 236447.5 116.638
6676816.5 236448.5 116.639
6676816.5 236449.5 116.640
6676816.5 236450.5 116.641
6676816.5 236451.5 116.642
6676816.5 236452.5 116.644
6676816.5 236453.5 116.645
6676816.5 236454.5 116.647
6676816.5 236455.5 116.649
6676816.5 236456.5 116.651
6676816.5 236457.5 116.653
6676816.5 236458.5 116.655
6676816.5 236459.5 116.657
6676816.5 236460.5 116.659
6676816.5 236461.5 116.661
6676816.5 236462.5 116.664
6676816.5 236463.5 116.666
6676816.5 236464.5 116.668
6676816.5 236465.5 116.671
6676816.5 236466.5 116.674
6676816.5 236467.5 116.677
6676816.5 236468.5 116.680
6676816.5 236469.5 116.683
6676816.5 236470.5 116.686
6676816.5 236471.5 116.690
6676816.5 236472.5 116.693
6676816.5 236473.5 116.697
6676816.5 236474.5 116.701
6676816.5 236475.5 116.705
6676816.5 236476.5 116.709
6676816.5 236477.5 116.713
6676816.5 236478.5 116.717
6676816.5 236479.5 116.722
6676815.5 236230.5 115.605
6676815.5 236231.5 115.678
6676815.5 236232.5 115.681
6676815.5 236233.5 115.781
6676815.5 236234.5 115.808
6676815.5 236235.5 115.847
6676815.5 236236.5 115.899
6676815.5 236237.5 115.905
6676815.5 236238.5 115.981
6676815.5 236239.5 115.933
6676815.5 236240.5 115.871
6676815.5 236241.5 115.904
6676815.5 236242.5 115.830
6676815.5 236243.5 115.777
6676815.5 236244.5 115.779
6676815.5 236245.5 115.780
6676815.5 236246.5 115.826
6676815.5 236247.5 115.886
6676815.5 236248.5 115.938
6676815.5 236249.5 116.045
6676815.5 236250.5 116.024
6676815.5 236251.5 115.981
6676815.5 236252.5 116.065
6676815.5 236253.5 116.089
6676815.5 236254.5 116.211
6676815.5 236255.5 116.335
6676815.5 236256.5 116.384
6676815.5 236257.5 116.415
6676815.5 236258.5 116.411
6676815.5 236259.5 116.453
6676815.5 236260.5 116.395
6676815.5 236261.5 116.287
6676815.5 236262.5 116.382
6676815.5 236263.5 116.443
6676815.5 236264.5 116.398
6676815.5 236265.5 116.317
6676815.5 236266.5 116.302
6676815.5 236267.5 116.291
6676815.5 236268.5 116.278
6676815.5 236269.5 116.276
6676815.5 236270.5 116.325
6676815.5 236271.5 116.332
6676815.5 236272.5 116.359
6676815.5 236273.5 116.415
6676815.5 236274.5 116.441
6676815.5 236275.5 116.447
6676815.5 236276.5 116.457
6676815.5 236277.5 116.449
6676815.5 236278.5 116.425
6676815.5 236279.5 116.417
6676815.5 236280.5 116.402
6676815.5 236281.5 116.413
6676815.5 236282.5 116.433
6676815.5 236283.5 116.518
6676815.5 236284.5 116.498
6676815.5 236285.5 116.433
6676815.5 236286.5 116.395
6676815.5 236287.5 116.398
6676815.5 236288.5 116.393
6676815.5 236289.5 116.356
6676815.5 236290.5 116.297
6676815.5 236291.5 116.291
6676815.5 236292.5 116.340
6676815.5 236293.5 116.352
6676815.5 236294.5 116.316
6676815.5 236295.5 116.276
6676815.5 236296.5 116.238
6676815.5 236297.5 116.177
6676815.5 236298.5 116.242
6676815.5 236299.5 116.269
6676815.5 236300.5 116.233
6676815.5 236301.5 116.214
6676815.5 236302.5 116.205
6676815.5 236303.5 116.197
6676815.5 236304.5 116.210
6676815.5 236305.5 116.229
6676815.5 236306.5 116.270
6676815.5 236307.5 116.307
6676815.5 236308.5 116.283
6676815.5 236309.5 116.261
6676815.5 236310.5 116.286
6676815.5 236311.5 116.325
6676815.5 236312.5 116.345
6676815.5 236313.5 116.282
6676815.5 236314.5 116.245
6676815.5 236315.5 116.255
6676815.5 236316.5 116.276
6676815.5 236317.5 116.251
6676815.5 236318.5 116.228
6676815.5 236319.5 116.260
6676815.5 236320.5 116.346
6676815.5 236321.5 116.414
6676815.5 236322.5 116.379
6676815.5 236323.5 116.342
6676815.5 236324.5 116.341
6676815.5 236325.5 116.323
6676815.5 236326.5 116.283
6676815.5 236327.5 116.227
6676815.5 236328.5 116.181
6676815.5 236329.5 116.207
6676815.5 236330.5 116.268
6676815.5 236331.5 116.306
6676815.5 236332.5 116.327
6676815.5 236333.5 116.304
6676815.5 236334.5 116.276
6676815.5 236335.5 116.272
6676815.5 236336.5 116.281
6676815.5 236337.5 116.267
6676815.5 236338.5 116.261
6676815.5 236339.5 116.292
6676815.5 236340.5 116.299
6676815.5 236341.5 116.281
6676815.5 236342.5 116.244
6676815.5 236343.5 116.209
6676815.5 236344.5 116.198
6676815.5 236345.5 116.184
6676815.5 236346.5 116.203
6676815.5 236347.5 116.248
6676815.5 236348.5 116.283
6676815.5 236349.5 116.348
6676815.5 236350.5 116.438
6676815.5 236351.5 116.490
6676815.5 236352.5 116.464
6676815.5 236353.5 116.453
6676815.5 236354.5 116.507
6676815.5 236355.5 116.530
6676815.5 236356.5 116.515
6676815.5 236357.5 116.521
6676815.5 236358.5 116.533
6676815.5 236359.5 116.514
6676815.5 236360.5 116.530
6676815.5 236361.5 116.563
6676815.5 236362.5 116.571
6676815.5 236363.5 116.589
6676815.5 236364.5 116.623
6676815.5 236365.5 116.662
6676815.5 236366.5 116.601
6676815.5 236367.5 116.609
6676815.5 236368.5 116.617
6676815.5 236369.5 116.636
6676815.5 236370.5 116.636
6676815.5 236371.5 116.641
6676815.5 236372.5 116.624
6676815.5 236373.5 116.631
6676815.5 236374.5 116.618
6676815.5 236375.5 116.562
6676815.5 236376.5 116.499
6676815.5 236377.5 116.443
6676815.5 236378.5 116.433
6676815.5 236379.5 116.445
6676815.5 236380.5 116.476
6676815.5 236381.5 116.509
6676815.5 236382.5 116.562
6676815.5 236383.5 116.529
6676815.5 236384.5 116.526
6676815.5 236385.5 116.599
6676815.5 236386.5 116.627
6676815.5 236387.5 116.639
6676815.5 236388.5 116.583
6676815.5 236389.5 116.549
6676815.5 236390.5 116.574
6676815.5 236391.5 116.601
6676815.5 236392.5 116.600
6676815.5 236393.5 116.576
6676815.5 236394.5 116.491
6676815.5 236395.5 116.463
6676815.5 236396.5 116.447
6676815.5 236397.5 116.459
6676815.5 236398.5 116.487
6676815.5 236399.5 116.519
6676815.5 236400.5 116.531
6676815.5 236401.5 116.504
6676815.5 236402.5 116.457
6676815.5 236403.5 116.412
6676815.5 236404.5 116.392
6676815.5 236405.5 116.447
6676815.5 236406.5 116.452
6676815.5 236407.5 116.433
6676815.5 236408.5 116.411
6676815.5 236409.5 116.374
6676815.5 236410.5 116.365
6676815.5 236411.5 116.344
6676815.5 236412.5 116.321
6676815.5 236413.5 116.327
6676815.5 236414.5 116.362
6676815.5 236415.5 116.379
6676815.5 236416.5 116.388
6676815.5 236417.5 116.428
6676815.5 236418.5 116.419
6676815.5 236419.5 116.455
6676815.5 236420.5 116.565
6676815.5 236421.5 116.682
6676815.5 236422.5 116.694
6676815.5 236423.5 116.675
6676815.5 236424.5 116.641
6676815.5 236425.5 116.615
6676815.5 236426.5 116.603
6676815.5 236427.5 116.600
6676815.5 236428.5 116.601
6676815.5 236429.5 116.605
6676815.5 236430.5 116.608
6676815.5 236431.5 116.613
6676815.5 236432.5 116.617
6676815.5 236433.5 116.620
6676815.5 236434.5 116.624
6676815.5 236435.5 116.627
6676815.5 236436.5 116.630
6676815.5 236437.5 116.633
6676815.5 236438.5 116.634
6676815.5 236439.5 116.635
6676815.5 236440.5 116.635
6676815.5 236441.5 116.633
6676815.5 236442.5 116.632
6676815.5 236443.5 116.630
6676815.5 236444.5 116.629
6676815.5 236445.5 116.629
6676815.5 236446.5 116.630
6676815.5 236447.5 116.630
6676815.5 236448.5 116.631
6676815.5 236449.5 116.632
6676815.5 236450.5 116.633
6676815.5 236451.5 116.635
6676815.5 236452.5 116.636
6676815.5 236453.5 116.638
6676815.5 236454.5 116.640
6676815.5 236455.5 116.642
6676815.5 236456.5 116.644
6676815.5 236457.5 116.646
6676815.5 236458.5 116.648
6676815.5 236459.5 116.650
6676815.5 236460.5 116.652
6676815.5 236461.5 116.655
6676815.5 236462.5 116.657
6676815.5 236463.5 116.660
6676815.5 236464.5 116.662
6676815.5 236465.5 116.665
6676815.5 236466.5 116.668
6676815.5 236467.5 116.671
6676815.5 236468.5 116.674
6676815.5 236469.5 116.677
6676815.5 236470.5 116.680
6676815.5 236471.5 116.684
6676815.5 236472.5 116.688
6676815.5 236473.5 116.691
6676815.5 236474.5 116.695
6676815.5 236475.5 116.700
6676815.5 236476.5 116.704
6676815.5 236477.5 116.708
6676815.5 236478.5 116.713
6676815.5 236479.5 116.717
6676814.5 236230.5 115.578
6676814.5 236231.5 115.635
6676814.5 236232.5 115.668
6676814.5 236233.5 115.759
6676814.5 236234.5 115.794
6676814.5 236235.5 115.847
6676814.5 236236.5 115.930
6676814.5 236237.5 115.929
6676814.5 236238.5 115.962
6676814.5 236239.5 115.944
6676814.5 236240.5 115.924
6676814.5 236241.5 115.906
6676814.5 236242.5 115.826
6676814.5 236243.5 115.764
6676814.5 236244.5 115.767
6676814.5 236245.5 115.772
6676814.5 236246.5 115.786
6676814.5 236247.5 115.877
6676814.5 236248.5 115.992
6676814.5 236249.5 116.086
6676814.5 236250.5 115.991
6676814.5 236251.5 115.961
6676814.5 236252.5 116.051
6676814.5 236253.5 116.090
6676814.5 236254.5 116.207
6676814.5 236255.5 116.366
6676814.5 236256.5 116.366
6676814.5 236257.5 116.382
6676814.5 236258.5 116.402
6676814.5 236259.5 116.392
6676814.5 236260.5 116.400
6676814.5 236261.5 116.304
6676814.5 236262.5 116.330
6676814.5 236263.5 116.376
6676814.5 236264.5 116.352
6676814.5 236265.5 116.346
6676814.5 236266.5 116.323
6676814.5 236267.5 116.308
6676814.5 236268.5 116.351
6676814.5 236269.5 116.406
6676814.5 236270.5 116.331
6676814.5 236271.5 116.353
6676814.5 236272.5 116.396
6676814.5 236273.5 116.389
6676814.5 236274.5 116.446
6676814.5 236275.5 116.441
6676814.5 236276.5 116.460
6676814.5 236277.5 116.455
6676814.5 236278.5 116.452
6676814.5 236279.5 116.442
6676814.5 236280.5 116.426
6676814.5 236281.5 116.440
6676814.5 236282.5 116.458
6676814.5 236283.5 116.492
6676814.5 236284.5 116.456
6676814.5 236285.5 116.423
6676814.5 236286.5 116.406
6676814.5 236287.5 116.389
6676814.5 236288.5 116.400
6676814.5 236289.5 116.383
6676814.5 236290.5 116.307
6676814.5 236291.5 116.287
6676814.5 236292.5 116.300
6676814.5 236293.5 116.289
6676814.5 236294.5 116.242
6676814.5 236295.5 116.246
6676814.5 236296.5 116.273
6676814.5 236297.5 116.216
6676814.5 236298.5 116.208
6676814.5 236299.5 116.220
6676814.5 236300.5 116.219
6676814.5 236301.5 116.254
6676814.5 236302.5 116.261
6676814.5 236303.5 116.221
6676814.5 236304.5 116.220
6676814.5 236305.5 116.224
6676814.5 236306.5 116.257
6676814.5 236307.5 116.286
6676814.5 236308.5 116.298
6676814.5 236309.5 116.272
6676814.5 236310.5 116.288
6676814.5 236311.5 116.317
6676814.5 236312.5 116.326
6676814.5 236313.5 116.298
6676814.5 236314.5 116.283
6676814.5 236315.5 116.267
6676814.5 236316.5 116.257
6676814.5 236317.5 116.248
6676814.5 236318.5 116.245
6676814.5 236319.5 116.281
6676814.5 236320.5 116.343
6676814.5 236321.5 116.371
6676814.5 236322.5 116.352
6676814.5 236323.5 116.349
6676814.5 236324.5 116.368
6676814.5 236325.5 116.357
6676814.5 236326.5 116.330
6676814.5 236327.5 116.271
6676814.5 236328.5 116.200
6676814.5 236329.5 116.214
6676814.5 236330.5 116.281
6676814.5 236331.5 116.334
6676814.5 236332.5 116.388
6676814.5 236333.5 116.371
6676814.5 236334.5 116.306
6676814.5 236335.5 116.268
6676814.5 236336.5 116.268
6676814.5 236337.5 116.268
6676814.5 236338.5 116.281
6676814.5 236339.5 116.307
6676814.5 236340.5 116.309
6676814.5 236341.5 116.296
6676814.5 236342.5 116.267
6676814.5 236343.5 116.272
6676814.5 236344.5 116.295
6676814.5 236345.5 116.280
6676814.5 236346.5 116.260
6676814.5 236347.5 116.242
6676814.5 236348.5 116.224
6676814.5 236349.5 116.281
6676814.5 236350.5 116.361
6676814.5 236351.5 116.409
6676814.5 236352.5 116.434
6676814.5 236353.5 116.451
6676814.5 236354.5 116.482
6676814.5 236355.5 116.488
6676814.5 236356.5 116.475
6676814.5 236357.5 116.505
6676814.5 236358.5 116.561
6676814.5 236359.5 116.552
6676814.5 236360.5 116.517
6676814.5 236361.5 116.542
6676814.5 236362.5 116.585
6676814.5 236363.5 116.591
6676814.5 236364.5 116.574
6676814.5 236365.5 116.575
6676814.5 236366.5 116.568
6676814.5 236367.5 116.605
6676814.5 236368.5 116.619
6676814.5 236369.5 116.619
6676814.5 236370.5 116.631
6676814.5 236371.5 116.609
6676814.5 236372.5 116.638
6676814.5 236373.5 116.684
6676814.5 236374.5 116.636
6676814.5 236375.5 116.565
6676814.5 236376.5 116.493
6676814.5 236377.5 116.444
6676814.5 236378.5 116.443
6676814.5 236379.5 116.503
6676814.5 236380.5 116.589
6676814.5 236381.5 116.581
6676814.5 236382.5 116.558
6676814.5 236383.5 116.558
6676814.5 236384.5 116.561
6676814.5 236385.5 116.585
6676814.5 236386.5 116.632
6676814.5 236387.5 116.640
6676814.5 236388.5 116.584
6676814.5 236389.5 116.578
6676814.5 236390.5 116.577
6676814.5 236391.5 116.602
6676814.5 236392.5 116.618
6676814.5 236393.5 116.589
6676814.5 236394.5 116.525
6676814.5 236395.5 116.482
6676814.5 236396.5 116.462
6676814.5 236397.5 116.480
6676814.5 236398.5 116.525
6676814.5 236399.5 116.504
6676814.5 236400.5 116.492
6676814.5 236401.5 116.442
6676814.5 236402.5 116.422
6676814.5 236403.5 116.429
6676814.5 236404.5 116.421
6676814.5 236405.5 116.477
6676814.5 236406.5 116.502
6676814.5 236407.5 116.509
6676814.5 236408.5 116.482
6676814.5 236409.5 116.425
6676814.5 236410.5 116.394
6676814.5 236411.5 116.352
6676814.5 236412.5 116.322
6676814.5 236413.5 116.304
6676814.5 236414.5 116.319
6676814.5 236415.5 116.324
6676814.5 236416.5 116.317
6676814.5 236417.5 116.342
6676814.5 236418.5 116.382
6676814.5 236419.5 116.437
6676814.5 236420.5 116.503
6676814.5 236421.5 116.599
6676814.5 236422.5 116.639
6676814.5 236423.5 116.630
6676814.5 236424.5 116.614
6676814.5 236425.5 116.593
6676814.5 236426.5 116.579
6676814.5 236427.5 116.576
6676814.5 236428.5 116.579
6676814.5 236429.5 116.584
6676814.5 236430.5 116.590
6676814.5 236431.5 116.596
6676814.5 236432.5 116.601
6676814.5 236433.5 116.605
6676814.5 236434.5 116.609
6676814.5 236435.5 116.612
6676814.5 236436.5 116.616
6676814.5 236437.5 116.619
6676814.5 236438.5 116.622
6676814.5 236439.5 116.624
6676814.5 236440.5 116.625
6676814.5 236441.5 116.624
6676814.5 236442.5 116.623
6676814.5 236443.5 116.622
6676814.5 236444.5 116.621
6676814.5 236445.5 116.621
6676814.5 236446.5 116.621
6676814.5 236447.5 116.622
6676814.5 236448.5 116.623
6676814.5 236449.5 116.624
6676814.5 236450.5 116.625
6676814.5 236451.5 116.627
6676814.5 236452.5 116.629
6676814.5 236453.5 116.630
6676814.5 236454.5 116.632
6676814.5 236455.5 116.634
6676814.5 236456.5 116.636
6676814.5 236457.5 116.639
6676814.5 236458.5 116.641
6676814.5 236459.5 116.643
6676814.5 236460.5 116.646
6676814.5 236461.5 116.648
6676814.5 236462.5 116.651
6676814.5 236463.5 116.653
6676814.5 236464.5 116.656
6676814.5 236465.5 116.659
6676814.5 236466.5 116.661
6676814.5 236467.5 116.664
6676814.5 236468.5 116.668
6676814.5 236469.5 116.671
6676814.5 236470.5 116.675
6676814.5 236471.5 116.678
6676814.5 236472.5 116.682
6676814.5 236473.5 116.686
6676814.5 236474.5 116.690
6676814.5 236475.5 116.694
6676814.5 236476.5 116.699
6676814.5 236477.5 116.703
6676814.5 236478.5 116.708
6676814.5 236479.5 116.712
6676813.5 236230.5 115.560
6676813.5 236231.5 115.617
6676813.5 236232.5 115.680
6676813.5 236233.5 115.770
6676813.5 236234.5 115.813
6676813.5 236235.5 115.863
6676813.5 236236.5 115.863
6676813.5 236237.5 115.870
6676813.5 236238.5 115.920
6676813.5 236239.5 115.933
6676813.5 236240.5 115.908
6676813.5 236241.5 115.867
6676813.5 236242.5 115.818
6676813.5 236243.5 115.770
6676813.5 236244.5 115.729
6676813.5 236245.5 115.774
6676813.5 236246.5 115.797
6676813.5 236247.5 115.810
6676813.5 236248.5 115.924
6676813.5 236249.5 116.015
6676813.5 236250.5 115.966
6676813.5 236251.5 115.982
6676813.5 236252.5 116.037
6676813.5 236253.5 116.080
6676813.5 236254.5 116.209
6676813.5 236255.5 116.289
6676813.5 236256.5 116.302
6676813.5 236257.5 116.294
6676813.5 236258.5 116.340
6676813.5 236259.5 116.302
6676813.5 236260.5 116.290
6676813.5 236261.5 116.365
6676813.5 236262.5 116.365
6676813.5 236263.5 116.345
6676813.5 236264.5 116.341
6676813.5 236265.5 116.394
6676813.5 236266.5 116.262
6676813.5 236267.5 116.332
6676813.5 236268.5 116.368
6676813.5 236269.5 116.407
6676813.5 236270.5 116.341
6676813.5 236271.5 116.389
6676813.5 236272.5 116.387
6676813.5 236273.5 116.396
6676813.5 236274.5 116.417
6676813.5 236275.5 116.406
6676813.5 236276.5 116.424
6676813.5 236277.5 116.407
6676813.5 236278.5 116.448
6676813.5 236279.5 116.463
6676813.5 236280.5 116.493
6676813.5 236281.5 116.552
6676813.5 236282.5 116.477
6676813.5 236283.5 116.472
6676813.5 236284.5 116.440
6676813.5 236285.5 116.423
6676813.5 236286.5 116.427
6676813.5 236287.5 116.410
6676813.5 236288.5 116.418
6676813.5 236289.5 116.420
6676813.5 236290.5 116.334
6676813.5 236291.5 116.317
6676813.5 236292.5 116.308
6676813.5 236293.5 116.293
6676813.5 236294.5 116.264
6676813.5 236295.5 116.236
6676813.5 236296.5 116.260
6676813.5 236297.5 116.226
6676813.5 236298.5 116.188
6676813.5 236299.5 116.195
6676813.5 236300.5 116.244
6676813.5 236301.5 116.278
6676813.5 236302.5 116.236
6676813.5 236303.5 116.189
6676813.5 236304.5 116.208
6676813.5 236305.5 116.266
6676813.5 236306.5 116.274
6676813.5 236307.5 116.264
6676813.5 236308.5 116.297
6676813.5 236309.5 116.269
6676813.5 236310.5 116.260
6676813.5 236311.5 116.299
6676813.5 236312.5 116.315
6676813.5 236313.5 116.284
6676813.5 236314.5 116.273
6676813.5 236315.5 116.267
6676813.5 236316.5 116.236
6676813.5 236317.5 116.244
6676813.5 236318.5 116.247
6676813.5 236319.5 116.262
6676813.5 236320.5 116.335
6676813.5 236321.5 116.364
6676813.5 236322.5 116.362
6676813.5 236323.5 116.355
6676813.5 236324.5 116.366
6676813.5 236325.5 116.318
6676813.5 236326.5 116.261
6676813.5 236327.5 116.229
6676813.5 236328.5 116.239
6676813.5 236329.5 116.296
6676813.5 236330.5 116.341
6676813.5 236331.5 116.345
6676813.5 236332.5 116.360
6676813.5 236333.5 116.347
6676813.5 236334.5 116.293
6676813.5 236335.5 116.242
6676813.5 236336.5 116.243
6676813.5 236337.5 116.238
6676813.5 236338.5 116.260
6676813.5 236339.5 116.307
6676813.5 236340.5 116.333
6676813.5 236341.5 116.310
6676813.5 236342.5 116.289
6676813.5 236343.5 116.299
6676813.5 236344.5 116.322
6676813.5 236345.5 116.352
6676813.5 236346.5 116.379
6676813.5 236347.5 116.372
6676813.5 236348.5 116.401
6676813.5 236349.5 116.414
6676813.5 236350.5 116.384
6676813.5 236351.5 116.360
6676813.5 236352.5 116.370
6676813.5 236353.5 116.403
6676813.5 236354.5 116.437
6676813.5 236355.5 116.455
6676813.5 236356.5 116.459
6676813.5 236357.5 116.475
6676813.5 236358.5 116.518
6676813.5 236359.5 116.529
6676813.5 236360.5 116.493
6676813.5 236361.5 116.492
6676813.5 236362.5 116.543
6676813.5 236363.5 116.554
6676813.5 236364.5 116.524
6676813.5 236365.5 116.520
6676813.5 236366.5 116.524
6676813.5 236367.5 116.544
6676813.5 236368.5 116.556
6676813.5 236369.5 116.557
6676813.5 236370.5 116.567
6676813.5 236371.5 116.573
6676813.5 236372.5 116.584
6676813.5 236373.5 116.593
6676813.5 236374.5 116.554
6676813.5 236375.5 116.486
6676813.5 236376.5 116.435
6676813.5 236377.5 116.433
6676813.5 236378.5 116.504
6676813.5 236379.5 116.627
6676813.5 236380.5 116.678
6676813.5 236381.5 116.636
6676813.5 236382.5 116.601
6676813.5 236383.5 116.571
6676813.5 236384.5 116.538
6676813.5 236385.5 116.550
6676813.5 236386.5 116.583
6676813.5 236387.5 116.586
6676813.5 236388.5 116.539
6676813.5 236389.5 116.531
6676813.5 236390.5 116.544
6676813.5 236391.5 116.555
6676813.5 236392.5 116.557
6676813.5 236393.5 116.547
6676813.5 236394.5 116.495
6676813.5 236395.5 116.470
6676813.5 236396.5 116.460
6676813.5 236397.5 116.515
6676813.5 236398.5 116.587
6676813.5 236399.5 116.535
6676813.5 236400.5 116.482
6676813.5 236401.5 116.424
6676813.5 236402.5 116.435
6676813.5 236403.5 116.413
6676813.5 236404.5 116.409
6676813.5 236405.5 116.435
6676813.5 236406.5 116.461
6676813.5 236407.5 116.519
6676813.5 236408.5 116.527
6676813.5 236409.5 116.478
6676813.5 236410.5 116.410
6676813.5 236411.5 116.343
6676813.5 236412.5 116.335
6676813.5 236413.5 116.318
6676813.5 236414.5 116.309
6676813.5 236415.5 116.293
6676813.5 236416.5 116.292
6676813.5 236417.5 116.298
6676813.5 236418.5 116.343
6676813.5 236419.5 116.389
6676813.5 236420.5 116.424
6676813.5 236421.5 116.483
6676813.5 236422.5 116.566
6676813.5 236423.5 116.583
6676813.5 236424.5 116.573
6676813.5 236425.5 116.562
6676813.5 236426.5 116.554
6676813.5 236427.5 116.550
6676813.5 236428.5 116.554
6676813.5 236429.5 116.562
6676813.5 236430.5 116.570
6676813.5 236431.5 116.578
6676813.5 236432.5 116.585
6676813.5 236433.5 116.591
6676813.5 236434.5 116.595
6676813.5 236435.5 116.599
6676813.5 236436.5 116.602
6676813.5 236437.5 116.605
6676813.5 236438.5 116.609
6676813.5 236439.5 116.612
6676813.5 236440.5 116.614
6676813.5 236441.5 116.615
6676813.5 236442.5 116.614
6676813.5 236443.5 116.614
6676813.5 236444.5 116.613
6676813.5 236445.5 116.613
6676813.5 236446.5 116.613
6676813.5 236447.5 116.614
6676813.5 236448.5 116.615
6676813.5 236449.5 116.616
6676813.5 236450.5 116.617
6676813.5 236451.5 116.619
6676813.5 236452.5 116.621
6676813.5 236453.5 116.623
6676813.5 236454.5 116.625
6676813.5 236455.5 116.627
6676813.5 236456.5 116.629
6676813.5 236457.5 116.631
6676813.5 236458.5 116.634
6676813.5 236459.5 116.636
6676813.5 236460.5 116.639
6676813.5 236461.5 116.641
6676813.5 236462.5 116.644
6676813.5 236463.5 116.647
6676813.5 236464.5 116.649
6676813.5 236465.5 116.652
6676813.5 236466.5 116.655
6676813.5 236467.5 116.658
6676813.5 236468.5 116.661
6676813.5 236469.5 116.665
6676813.5 236470.5 116.668
6676813.5 236471.5 116.672
6676813.5 236472.5 116.676
6676813.5 236473.5 116.680
6676813.5 236474.5 116.684
6676813.5 236475.5 116.689
6676813.5 236476.5 116.693
6676813.5 236477.5 116.698
6676813.5 236478.5 116.703
6676813.5 236479.5 116.708
6676812.5 236230.5 115.535
6676812.5 236231.5 115.603
6676812.5 236232.5 115.686
6676812.5 236233.5 115.766
6676812.5 236234.5 115.831
6676812.5 236235.5 115.900
6676812.5 236236.5 115.858
6676812.5 236237.5 115.874
6676812.5 236238.5 115.930
6676812.5 236239.5 115.939
6676812.5 236240.5 115.913
6676812.5 236241.5 115.897
6676812.5 236242.5 115.882
6676812.5 236243.5 115.839
6676812.5 236244.5 115.755
6676812.5 236245.5 115.781
6676812.5 236246.5 115.794
6676812.5 236247.5 115.829
6676812.5 236248.5 115.864
6676812.5 236249.5 115.936
6676812.5 236250.5 115.955
6676812.5 236251.5 115.980
6676812.5 236252.5 116.042
6676812.5 236253.5 116.102
6676812.5 236254.5 116.232
6676812.5 236255.5 116.233
6676812.5 236256.5 116.224
6676812.5 236257.5 116.266
6676812.5 236258.5 116.348
6676812.5 236259.5 116.354
6676812.5 236260.5 116.292
6676812.5 236261.5 116.320
6676812.5 236262.5 116.380
6676812.5 236263.5 116.344
6676812.5 236264.5 116.342
6676812.5 236265.5 116.388
6676812.5 236266.5 116.220
6676812.5 236267.5 116.246
6676812.5 236268.5 116.304
6676812.5 236269.5 116.345
6676812.5 236270.5 116.367
6676812.5 236271.5 116.380
6676812.5 236272.5 116.430
6676812.5 236273.5 116.419
6676812.5 236274.5 116.430
6676812.5 236275.5 116.435
6676812.5 236276.5 116.402
6676812.5 236277.5 116.407
6676812.5 236278.5 116.439
6676812.5 236279.5 116.435
6676812.5 236280.5 116.508
6676812.5 236281.5 116.536
6676812.5 236282.5 116.481
6676812.5 236283.5 116.442
6676812.5 236284.5 116.410
6676812.5 236285.5 116.411
6676812.5 236286.5 116.455
6676812.5 236287.5 116.393
6676812.5 236288.5 116.415
6676812.5 236289.5 116.433
6676812.5 236290.5 116.346
6676812.5 236291.5 116.321
6676812.5 236292.5 116.329
6676812.5 236293.5 116.322
6676812.5 236294.5 116.267
6676812.5 236295.5 116.221
6676812.5 236296.5 116.247
6676812.5 236297.5 116.211
6676812.5 236298.5 116.196
6676812.5 236299.5 116.176
6676812.5 236300.5 116.241
6676812.5 236301.5 116.312
6676812.5 236302.5 116.250
6676812.5 236303.5 116.259
6676812.5 236304.5 116.209
6676812.5 236305.5 116.232
6676812.5 236306.5 116.263
6676812.5 236307.5 116.245
6676812.5 236308.5 116.249
6676812.5 236309.5 116.244
6676812.5 236310.5 116.247
6676812.5 236311.5 116.288
6676812.5 236312.5 116.337
6676812.5 236313.5 116.265
6676812.5 236314.5 116.241
6676812.5 236315.5 116.245
6676812.5 236316.5 116.278
6676812.5 236317.5 116.282
6676812.5 236318.5 116.274
6676812.5 236319.5 116.248
6676812.5 236320.5 116.325
6676812.5 236321.5 116.365
6676812.5 236322.5 116.372
6676812.5 236323.5 116.340
6676812.5 236324.5 116.296
6676812.5 236325.5 116.235
6676812.5 236326.5 116.177
6676812.5 236327.5 116.226
6676812.5 236328.5 116.293
6676812.5 236329.5 116.378
6676812.5 236330.5 116.375
6676812.5 236331.5 116.318
6676812.5 236332.5 116.302
6676812.5 236333.5 116.302
6676812.5 236334.5 116.286
6676812.5 236335.5 116.258
6676812.5 236336.5 116.246
6676812.5 236337.5 116.203
6676812.5 236338.5 116.216
6676812.5 236339.5 116.307
6676812.5 236340.5 116.355
6676812.5 236341.5 116.330
6676812.5 236342.5 116.324
6676812.5 236343.5 116.319
6676812.5 236344.5 116.347
6676812.5 236345.5 116.415
6676812.5 236346.5 116.455
6676812.5 236347.5 116.461
6676812.5 236348.5 116.516
6676812.5 236349.5 116.502
6676812.5 236350.5 116.454
6676812.5 236351.5 116.422
6676812.5 236352.5 116.436
6676812.5 236353.5 116.423
6676812.5 236354.5 116.405
6676812.5 236355.5 116.403
6676812.5 236356.5 116.417
6676812.5 236357.5 116.468
6676812.5 236358.5 116.498
6676812.5 236359.5 116.493
6676812.5 236360.5 116.498
6676812.5 236361.5 116.510
6676812.5 236362.5 116.507
6676812.5 236363.5 116.508
6676812.5 236364.5 116.494
6676812.5 236365.5 116.497
6676812.5 236366.5 116.519
6676812.5 236367.5 116.515
6676812.5 236368.5 116.493
6676812.5 236369.5 116.489
6676812.5 236370.5 116.506
6676812.5 236371.5 116.529
6676812.5 236372.5 116.507
6676812.5 236373.5 116.477
6676812.5 236374.5 116.449
6676812.5 236375.5 116.407
6676812.5 236376.5 116.371
6676812.5 236377.5 116.410
6676812.5 236378.5 116.525
6676812.5 236379.5 116.641
6676812.5 236380.5 116.652
6676812.5 236381.5 116.661
6676812.5 236382.5 116.644
6676812.5 236383.5 116.549
6676812.5 236384.5 116.508
6676812.5 236385.5 116.516
6676812.5 236386.5 116.539
6676812.5 236387.5 116.529
6676812.5 236388.5 116.497
6676812.5 236389.5 116.499
6676812.5 236390.5 116.508
6676812.5 236391.5 116.562
6676812.5 236392.5 116.580
6676812.5 236393.5 116.535
6676812.5 236394.5 116.494
6676812.5 236395.5 116.470
6676812.5 236396.5 116.469
6676812.5 236397.5 116.538
6676812.5 236398.5 116.596
6676812.5 236399.5 116.559
6676812.5 236400.5 116.491
6676812.5 236401.5 116.429
6676812.5 236402.5 116.471
6676812.5 236403.5 116.495
6676812.5 236404.5 116.480
6676812.5 236405.5 116.484
6676812.5 236406.5 116.471
6676812.5 236407.5 116.489
6676812.5 236408.5 116.502
6676812.5 236409.5 116.482
6676812.5 236410.5 116.421
6676812.5 236411.5 116.373
6676812.5 236412.5 116.428
6676812.5 236413.5 116.432
6676812.5 236414.5 116.385
6676812.5 236415.5 116.337
6676812.5 236416.5 116.315
6676812.5 236417.5 116.303
6676812.5 236418.5 116.334
6676812.5 236419.5 116.371
6676812.5 236420.5 116.389
6676812.5 236421.5 116.412
6676812.5 236422.5 116.472
6676812.5 236423.5 116.515
6676812.5 236424.5 116.520
6676812.5 236425.5 116.522
6676812.5 236426.5 116.533
6676812.5 236427.5 116.526
6676812.5 236428.5 116.526
6676812.5 236429.5 116.536
6676812.5 236430.5 116.548
6676812.5 236431.5 116.560
6676812.5 236432.5 116.569
6676812.5 236433.5 116.576
6676812.5 236434.5 116.581
6676812.5 236435.5 116.585
6676812.5 236436.5 116.588
6676812.5 236437.5 116.591
6676812.5 236438.5 116.595
6676812.5 236439.5 116.598
6676812.5 236440.5 116.601
6676812.5 236441.5 116.603
6676812.5 236442.5 116.604
6676812.5 236443.5 116.605
6676812.5 236444.5 116.605
6676812.5 236445.5 116.605
6676812.5 236446.5 116.605
6676812.5 236447.5 116.605
6676812.5 236448.5 116.606
6676812.5 236449.5 116.608
6676812.5 236450.5 116.609
6676812.5 236451.5 116.611
6676812.5 236452.5 116.613
6676812.5 236453.5 116.615
6676812.5 236454.5 116.617
6676812.5 236455.5 116.619
6676812.5 236456.5 116.621
6676812.5 236457.5 116.624
6676812.5 236458.5 116.626
6676812.5 236459.5 116.629
6676812.5 236460.5 116.632
6676812.5 236461.5 116.634
6676812.5 236462.5 116.637
6676812.5 236463.5 116.640
6676812.5 236464.5 116.643
6676812.5 236465.5 116.645
6676812.5 236466.5 116.648
6676812.5 236467.5 116.652
6676812.5 236468.5 116.655
6676812.5 236469.5 116.659
6676812.5 236470.5 116.662
6676812.5 236471.5 116.666
6676812.5 236472.5 116.670
6676812.5 236473.5 116.674
6676812.5 236474.5 116.679
6676812.5 236475.5 116.683
6676812.5 236476.5 116.688
6676812.5 236477.5 116.693
6676812.5 236478.5 116.698
6676812.5 236479.5 116.703
6676811.5 236230.5 115.540
6676811.5 236231.5 115.581
6676811.5 236232.5 115.658
6676811.5 236233.5 115.749
6676811.5 236234.5 115.784
6676811.5 236235.5 115.814
6676811.5 236236.5 115.823
6676811.5 236237.5 115.856
6676811.5 236238.5 115.918
6676811.5 236239.5 115.912
6676811.5 236240.5 115.919
6676811.5 236241.5 115.932
6676811.5 236242.5 115.940
6676811.5 236243.5 115.924
6676811.5 236244.5 115.850
6676811.5 236245.5 115.824
6676811.5 236246.5 115.810
6676811.5 236247.5 115.883
6676811.5 236248.5 115.953
6676811.5 236249.5 115.968
6676811.5 236250.5 115.916
6676811.5 236251.5 115.944
6676811.5 236252.5 116.017
6676811.5 236253.5 116.103
6676811.5 236254.5 116.231
6676811.5 236255.5 116.222
6676811.5 236256.5 116.209
6676811.5 236257.5 116.246
6676811.5 236258.5 116.311
6676811.5 236259.5 116.341
6676811.5 236260.5 116.324
6676811.5 236261.5 116.340
6676811.5 236262.5 116.332
6676811.5 236263.5 116.364
6676811.5 236264.5 116.365
6676811.5 236265.5 116.356
6676811.5 236266.5 116.277
6676811.5 236267.5 116.233
6676811.5 236268.5 116.264
6676811.5 236269.5 116.287
6676811.5 236270.5 116.296
6676811.5 236271.5 116.317
6676811.5 236272.5 116.385
6676811.5 236273.5 116.413
6676811.5 236274.5 116.416
6676811.5 236275.5 116.402
6676811.5 236276.5 116.390
6676811.5 236277.5 116.419
6676811.5 236278.5 116.407
6676811.5 236279.5 116.373
6676811.5 236280.5 116.442
6676811.5 236281.5 116.458
6676811.5 236282.5 116.421
6676811.5 236283.5 116.414
6676811.5 236284.5 116.354
6676811.5 236285.5 116.400
6676811.5 236286.5 116.444
6676811.5 236287.5 116.352
6676811.5 236288.5 116.372
6676811.5 236289.5 116.361
6676811.5 236290.5 116.323
6676811.5 236291.5 116.334
6676811.5 236292.5 116.311
6676811.5 236293.5 116.307
6676811.5 236294.5 116.257
6676811.5 236295.5 116.209
6676811.5 236296.5 116.237
6676811.5 236297.5 116.221
6676811.5 236298.5 116.213
6676811.5 236299.5 116.159
6676811.5 236300.5 116.198
6676811.5 236301.5 116.290
6676811.5 236302.5 116.234
6676811.5 236303.5 116.226
6676811.5 236304.5 116.148
6676811.5 236305.5 116.208
6676811.5 236306.5 116.259
6676811.5 236307.5 116.249
6676811.5 236308.5 116.183
6676811.5 236309.5 116.233
6676811.5 236310.5 116.250
6676811.5 236311.5 116.269
6676811.5 236312.5 116.295
6676811.5 236313.5 116.187
6676811.5 236314.5 116.208
6676811.5 236315.5 116.214
6676811.5 236316.5 116.277
6676811.5 236317.5 116.320
6676811.5 236318.5 116.298
6676811.5 236319.5 116.261
6676811.5 236320.5 116.324
6676811.5 236321.5 116.306
6676811.5 236322.5 116.334
6676811.5 236323.5 116.284
6676811.5 236324.5 116.233
6676811.5 236325.5 116.202
6676811.5 236326.5 116.191
6676811.5 236327.5 116.210
6676811.5 236328.5 116.272
6676811.5 236329.5 116.339
6676811.5 236330.5 116.293
6676811.5 236331.5 116.260
6676811.5 236332.5 116.266
6676811.5 236333.5 116.251
6676811.5 236334.5 116.254
6676811.5 236335.5 116.257
6676811.5 236336.5 116.268
6676811.5 236337.5 116.233
6676811.5 236338.5 116.229
6676811.5 236339.5 116.287
6676811.5 236340.5 116.335
6676811.5 236341.5 116.304
6676811.5 236342.5 116.302
6676811.5 236343.5 116.301
6676811.5 236344.5 116.358
6676811.5 236345.5 116.456
6676811.5 236346.5 116.501
6676811.5 236347.5 116.445
6676811.5 236348.5 116.489
6676811.5 236349.5 116.518
6676811.5 236350.5 116.511
6676811.5 236351.5 116.488
6676811.5 236352.5 116.507
6676811.5 236353.5 116.475
6676811.5 236354.5 116.411
6676811.5 236355.5 116.393
6676811.5 236356.5 116.394
6676811.5 236357.5 116.448
6676811.5 236358.5 116.504
6676811.5 236359.5 116.527
6676811.5 236360.5 116.540
6676811.5 236361.5 116.547
6676811.5 236362.5 116.558
6676811.5 236363.5 116.520
6676811.5 236364.5 116.508
6676811.5 236365.5 116.546
6676811.5 236366.5 116.593
6676811.5 236367.5 116.560
6676811.5 236368.5 116.492
6676811.5 236369.5 116.477
6676811.5 236370.5 116.472
6676811.5 236371.5 116.447
6676811.5 236372.5 116.430
6676811.5 236373.5 116.419
6676811.5 236374.5 116.412
6676811.5 236375.5 116.379
6676811.5 236376.5 116.348
6676811.5 236377.5 116.386
6676811.5 236378.5 116.498
6676811.5 236379.5 116.650
6676811.5 236380.5 116.650
6676811.5 236381.5 116.609
6676811.5 236382.5 116.538
6676811.5 236383.5 116.460
6676811.5 236384.5 116.477
6676811.5 236385.5 116.486
6676811.5 236386.5 116.487
6676811.5 236387.5 116.485
6676811.5 236388.5 116.472
6676811.5 236389.5 116.479
6676811.5 236390.5 116.504
6676811.5 236391.5 116.546
6676811.5 236392.5 116.577
6676811.5 236393.5 116.522
6676811.5 236394.5 116.492
6676811.5 236395.5 116.490
6676811.5 236396.5 116.503
6676811.5 236397.5 116.557
6676811.5 236398.5 116.594
6676811.5 236399.5 116.571
6676811.5 236400.5 116.486
6676811.5 236401.5 116.438
6676811.5 236402.5 116.496
6676811.5 236403.5 116.466
6676811.5 236404.5 116.447
6676811.5 236405.5 116.526
6676811.5 236406.5 116.537
6676811.5 236407.5 116.526
6676811.5 236408.5 116.522
6676811.5 236409.5 116.501
6676811.5 236410.5 116.425
6676811.5 236411.5 116.404
6676811.5 236412.5 116.463
6676811.5 236413.5 116.486
6676811.5 236414.5 116.484
6676811.5 236415.5 116.459
6676811.5 236416.5 116.429
6676811.5 236417.5 116.402
6676811.5 236418.5 116.389
6676811.5 236419.5 116.388
6676811.5 236420.5 116.383
6676811.5 236421.5 116.369
6676811.5 236422.5 116.379
6676811.5 236423.5 116.388
6676811.5 236424.5 116.400
6676811.5 236425.5 116.437
6676811.5 236426.5 116.489
6676811.5 236427.5 116.506
6676811.5 236428.5 116.509
6676811.5 236429.5 116.521
6676811.5 236430.5 116.521
6676811.5 236431.5 116.539
6676811.5 236432.5 116.553
6676811.5 236433.5 116.563
6676811.5 236434.5 116.570
6676811.5 236435.5 116.574
6676811.5 236436.5 116.576
6676811.5 236437.5 116.578
6676811.5 236438.5 116.580
6676811.5 236439.5 116.583
6676811.5 236440.5 116.587
6676811.5 236441.5 116.590
6676811.5 236442.5 116.593
6676811.5 236443.5 116.595
6676811.5 236444.5 116.596
6676811.5 236445.5 116.596
6676811.5 236446.5 116.597
6676811.5 236447.5 116.597
6676811.5 236448.5 116.598
6676811.5 236449.5 116.599
6676811.5 236450.5 116.601
6676811.5 236451.5 116.603
6676811.5 236452.5 116.605
6676811.5 236453.5 116.607
6676811.5 236454.5 116.609
6676811.5 236455.5 116.611
6676811.5 236456.5 116.614
6676811.5 236457.5 116.616
6676811.5 236458.5 116.619
6676811.5 236459.5 116.622
6676811.5 236460.5 116.624
6676811.5 236461.5 116.627
6676811.5 236462.5 116.630
6676811.5 236463.5 116.633
6676811.5 236464.5 116.636
6676811.5 236465.5 116.639
6676811.5 236466.5 116.642
6676811.5 236467.5 116.645
6676811.5 236468.5 116.648
6676811.5 236469.5 116.652
6676811.5 236470.5 116.656
6676811.5 236471.5 116.660
6676811.5 236472.5 116.664
6676811.5 236473.5 116.668
6676811.5 236474.5 116.673
6676811.5 236475.5 116.678
6676811.5 236476.5 116.682
6676811.5 236477.5 116.687
6676811.5 236478.5 116.692
6676811.5 236479.5 116.698
6676810.5 236230.5 115.535
6676810.5 236231.5 115.557
6676810.5 236232.5 115.618
6676810.5 236233.5 115.692
6676810.5 236234.5 115.720
6676810.5 236235.5 115.743
6676810.5 236236.5 115.768
6676810.5 236237.5 115.804
6676810.5 236238.5 115.836
6676810.5 236239.5 115.879
6676810.5 236240.5 115.917
6676810.5 236241.5 115.947
6676810.5 236242.5 115.960
6676810.5 236243.5 115.952
6676810.5 236244.5 115.901
6676810.5 236245.5 115.856
6676810.5 236246.5 115.822
6676810.5 236247.5 115.869
6676810.5 236248.5 115.941
6676810.5 236249.5 115.934
6676810.5 236250.5 115.891
6676810.5 236251.5 115.923
6676810.5 236252.5 115.998
6676810.5 236253.5 116.093
6676810.5 236254.5 116.228
6676810.5 236255.5 116.242
6676810.5 236256.5 116.230
6676810.5 236257.5 116.239
6676810.5 236258.5 116.326
6676810.5 236259.5 116.403
6676810.5 236260.5 116.413
6676810.5 236261.5 116.363
6676810.5 236262.5 116.291
6676810.5 236263.5 116.344
6676810.5 236264.5 116.398
6676810.5 236265.5 116.383
6676810.5 236266.5 116.367
6676810.5 236267.5 116.360
6676810.5 236268.5 116.369
6676810.5 236269.5 116.338
6676810.5 236270.5 116.318
6676810.5 236271.5 116.311
6676810.5 236272.5 116.374
6676810.5 236273.5 116.382
6676810.5 236274.5 116.407
6676810.5 236275.5 116.379
6676810.5 236276.5 116.419
6676810.5 236277.5 116.466
6676810.5 236278.5 116.425
6676810.5 236279.5 116.375
6676810.5 236280.5 116.391
6676810.5 236281.5 116.402
6676810.5 236282.5 116.446
6676810.5 236283.5 116.390
6676810.5 236284.5 116.335
6676810.5 236285.5 116.392
6676810.5 236286.5 116.421
6676810.5 236287.5 116.374
6676810.5 236288.5 116.370
6676810.5 236289.5 116.340
6676810.5 236290.5 116.345
6676810.5 236291.5 116.356
6676810.5 236292.5 116.296
6676810.5 236293.5 116.289
6676810.5 236294.5 116.254
6676810.5 236295.5 116.205
6676810.5 236296.5 116.244
6676810.5 236297.5 116.246
6676810.5 236298.5 116.246
6676810.5 236299.5 116.175
6676810.5 236300.5 116.154
6676810.5 236301.5 116.176
6676810.5 236302.5 116.152
6676810.5 236303.5 116.183
6676810.5 236304.5 116.176
6676810.5 236305.5 116.230
6676810.5 236306.5 116.249
6676810.5 236307.5 116.253
6676810.5 236308.5 116.225
6676810.5 236309.5 116.255
6676810.5 236310.5 116.246
6676810.5 236311.5 116.234
6676810.5 236312.5 116.271
6676810.5 236313.5 116.200
