6647641.500 249502.500  9.881
6647641.500 249503.500  9.966
6647641.500 249504.500  9.992
6647641.500 249505.500 10.023
6647641.500 249506.500 10.042
6647641.500 249507.500 10.020
6647641.500 249508.500  9.983
6647641.500 249509.500  9.939
6647641.500 249510.500  9.888
6647641.500 249511.500  9.834
6647641.500 249512.500  9.779
6647641.500 249513.500  9.722
6647641.500 249514.500  9.664
6647641.500 249515.500  9.606
6647641.500 249516.500  9.546
6647641.500 249517.500  9.486
6647641.500 249518.500  9.426
6647641.500 249519.500  9.365
6647641.500 249520.500  9.304
6647641.500 249521.500  9.242
6647641.500 249522.500  9.179
6647641.500 249523.500  9.116
6647641.500 249524.500  9.051
6647641.500 249525.500  8.987
6647641.500 249526.500  8.921
6647641.500 249527.500  8.854
6647641.500 249528.500  8.787
6647641.500 249529.500  8.719
6647641.500 249530.500  8.651
6647641.500 249531.500  8.582
6647641.500 249532.500  8.512
6647641.500 249533.500  8.442
6647641.500 249534.500  8.372
6647641.500 249535.500  8.301
6647641.500 249536.500  8.230
6647641.500 249537.500  8.160
6647641.500 249538.500  8.090
6647641.500 249539.500  8.020
6647641.500 249540.500  7.951
6647641.500 249541.500  7.880
6647641.500 249542.500  7.810
6647641.500 249543.500  7.740
6647641.500 249544.500  7.668
6647641.500 249545.500  7.596
6647641.500 249546.500  7.523
6647641.500 249547.500  7.448
6647641.500 249548.500  7.374
6647641.500 249549.500  7.306
6647641.500 249550.500  7.249
6647641.500 249551.500  7.200
6647641.500 249552.500  7.154
6647641.500 249553.500  7.112
6647641.500 249554.500  7.067
6647641.500 249555.500  6.971
6647641.500 249556.500  6.864
6647641.500 249557.500  6.718
6647641.500 249558.500  6.556
6647641.500 249559.500  6.451
6647641.500 249560.500  6.364
6647641.500 249561.500  6.271
6647641.500 249562.500  6.155
6647641.500 249563.500  6.036
6647641.500 249564.500  5.931
6647641.500 249565.500  5.837
6647641.500 249566.500  5.749
6647641.500 249567.500  5.667
6647641.500 249568.500  5.599
6647641.500 249569.500  5.539
6647641.500 249570.500  5.482
6647641.500 249571.500  5.433
6647641.500 249572.500  5.391
6647641.500 249573.500  5.341
6647641.500 249574.500  5.291
6647641.500 249575.500  5.255
6647641.500 249576.500  5.225
6647641.500 249577.500  5.221
6647641.500 249578.500  5.238
6647641.500 249579.500  5.232
6647641.500 249580.500  5.206
6647641.500 249581.500  5.186
6647641.500 249582.500  5.190
6647641.500 249583.500  5.184
6647641.500 249584.500  5.159
6647641.500 249585.500  5.125
6647641.500 249586.500  5.098
6647641.500 249587.500  5.093
6647641.500 249588.500  5.084
6647641.500 249589.500  5.027
6647641.500 249590.500  4.847
6647641.500 249591.500  4.536
6647641.500 249592.500  4.241
6647641.500 249593.500  4.098
6647641.500 249594.500  4.087
6647641.500 249595.500  4.125
6647641.500 249596.500  4.151
6647641.500 249597.500  4.145
6647641.500 249598.500  4.100
6647641.500 249599.500  4.032
6647641.500 249600.500  3.951
6647641.500 249601.500  3.885
6647641.500 249602.500  3.871
6647641.500 249603.500  3.854
6647641.500 249604.500  3.829
6647641.500 249605.500  3.804
6647641.500 249606.500  3.796
6647641.500 249607.500  3.815
6647641.500 249608.500  3.796
6647641.500 249609.500  3.748
6647641.500 249610.500  3.721
6647641.500 249611.500  3.685
6647641.500 249612.500  3.641
6647641.500 249613.500  3.603
6647641.500 249614.500  3.475
6647641.500 249615.500  3.178
6647641.500 249616.500  2.854
6647641.500 249617.500  2.673
6647641.500 249618.500  2.547
6647641.500 249619.500  2.324
6647641.500 249620.500  2.151
6647641.500 249621.500  1.954
6647641.500 249622.500  1.779
6647641.500 249623.500  1.561
6647641.500 249624.500  1.370
6647641.500 249625.500  1.145
6647641.500 249626.500  0.827
6647641.500 249627.500  0.511
6647641.500 249628.500  0.297
6647641.500 249629.500  0.022
6647641.500 249630.500 -0.194
6647641.500 249631.500 -0.232
6647641.500 249632.500 -0.257
6647641.500 249633.500 -0.252
6647641.500 249634.500 -0.247
6647641.500 249635.500 -0.237
6647641.500 249636.500 -0.231
6647641.500 249637.500 -0.236
6647641.500 249638.500 -0.247
6647641.500 249639.500 -0.248
6647641.500 249640.500 -0.243
6647641.500 249641.500 -0.254
6647641.500 249642.500 -0.262
6647641.500 249643.500 -0.272
6647641.500 249644.500 -0.292
6647641.500 249645.500 -0.324
6647641.500 249646.500 -0.350
6647641.500 249647.500 -0.315
6647641.500 249648.500 -0.208
6647641.500 249649.500 -0.200
6647641.500 249650.500 -0.240
6647641.500 249651.500 -0.232
6647641.500 249652.500 -0.229
6647641.500 249653.500 -0.242
6647641.500 249654.500 -0.232
6647641.500 249655.500 -0.234
6647641.500 249656.500 -0.191
6647641.500 249657.500 -0.177
6647641.500 249658.500 -0.195
6647641.500 249659.500 -0.215
6647641.500 249660.500 -0.227
6647641.500 249661.500 -0.232
6647641.500 249662.500 -0.239
6647641.500 249663.500 -0.253
6647641.500 249664.500 -0.280
6647641.500 249665.500 -0.280
6647641.500 249666.500 -0.275
6647641.500 249667.500 -0.272
6647641.500 249668.500 -0.272
6647641.500 249669.500 -0.276
6647641.500 249670.500 -0.284
6647641.500 249671.500 -0.286
6647641.500 249672.500 -0.263
6647641.500 249673.500 -0.263
6647641.500 249674.500 -0.253
6647641.500 249675.500 -0.205
6647641.500 249676.500 -0.173
6647641.500 249677.500 -0.195
6647641.500 249678.500 -0.234
6647641.500 249679.500 -0.263
6647641.500 249680.500 -0.285
6647641.500 249681.500 -0.285
6647641.500 249682.500 -0.285
6647641.500 249683.500 -0.256
6647641.500 249684.500  0.147
6647641.500 249685.500  0.872
6647641.500 249686.500  1.617
6647641.500 249687.500  2.027
6647641.500 249688.500  2.137
6647641.500 249689.500  2.204
6647641.500 249690.500  2.177
6647641.500 249691.500  2.093
6647641.500 249692.500  2.086
6647641.500 249693.500  2.072
6647641.500 249694.500  2.079
6647641.500 249695.500  2.099
6647641.500 249696.500  2.099
6647641.500 249697.500  2.124
6647641.500 249698.500  2.177
6647641.500 249699.500  2.242
6647641.500 249700.500  2.328
6647641.500 249701.500  2.541
6647641.500 249702.500  2.831
6647641.500 249703.500  3.163
6647641.500 249704.500  3.527
6647641.500 249705.500  3.919
6647641.500 249706.500  4.334
6647641.500 249707.500  4.770
6647641.500 249708.500  5.224
6647641.500 249709.500  5.686
6647641.500 249710.500  6.148
6647641.500 249711.500  6.608
6647641.500 249712.500  7.061
6647641.500 249713.500  7.498
6647641.500 249714.500  7.871
6647641.500 249715.500  8.041
6647641.500 249716.500  8.030
6647641.500 249717.500  8.019
6647641.500 249718.500  8.017
6647641.500 249719.500  7.997
6647641.500 249720.500  7.961
6647641.500 249721.500  7.937
6647641.500 249722.500  7.963
6647641.500 249723.500  7.999
6647641.500 249724.500  7.996
6647641.500 249725.500  7.989
6647641.500 249726.500  7.984
6647641.500 249727.500  7.913
6647641.500 249728.500  7.863
6647641.500 249729.500  7.837
6647641.500 249730.500  7.873
6647641.500 249731.500  7.863
6647641.500 249732.500  7.820
6647641.500 249733.500  7.833
6647641.500 249734.500  7.915
6647641.500 249735.500  7.705
6647641.500 249736.500  7.371
6647641.500 249737.500  7.124
6647641.500 249738.500  7.012
6647641.500 249739.500  6.998
6647641.500 249740.500  7.102
6647641.500 249741.500  7.336
6647641.500 249742.500  7.402
6647641.500 249743.500  7.362
6647641.500 249744.500  7.365
6647641.500 249745.500  7.344
6647641.500 249746.500  7.213
6647641.500 249747.500  6.990
6647641.500 249748.500  6.476
6647641.500 249749.500  6.099
6647640.500 249500.500  9.725
6647640.500 249501.500  9.787
6647640.500 249502.500  9.826
6647640.500 249503.500  9.901
6647640.500 249504.500  9.992
6647640.500 249505.500 10.013
6647640.500 249506.500 10.045
6647640.500 249507.500 10.038
6647640.500 249508.500 10.011
6647640.500 249509.500  9.972
6647640.500 249510.500  9.922
6647640.500 249511.500  9.868
6647640.500 249512.500  9.812
6647640.500 249513.500  9.755
6647640.500 249514.500  9.697
6647640.500 249515.500  9.638
6647640.500 249516.500  9.578
6647640.500 249517.500  9.518
6647640.500 249518.500  9.458
6647640.500 249519.500  9.397
6647640.500 249520.500  9.335
6647640.500 249521.500  9.273
6647640.500 249522.500  9.211
6647640.500 249523.500  9.147
6647640.500 249524.500  9.083
6647640.500 249525.500  9.018
6647640.500 249526.500  8.952
6647640.500 249527.500  8.886
6647640.500 249528.500  8.818
6647640.500 249529.500  8.750
6647640.500 249530.500  8.682
6647640.500 249531.500  8.612
6647640.500 249532.500  8.543
6647640.500 249533.500  8.473
6647640.500 249534.500  8.402
6647640.500 249535.500  8.331
6647640.500 249536.500  8.260
6647640.500 249537.500  8.189
6647640.500 249538.500  8.119
6647640.500 249539.500  8.048
6647640.500 249540.500  7.977
6647640.500 249541.500  7.906
6647640.500 249542.500  7.834
6647640.500 249543.500  7.762
6647640.500 249544.500  7.689
6647640.500 249545.500  7.615
6647640.500 249546.500  7.539
6647640.500 249547.500  7.461
6647640.500 249548.500  7.386
6647640.500 249549.500  7.319
6647640.500 249550.500  7.266
6647640.500 249551.500  7.222
6647640.500 249552.500  7.184
6647640.500 249553.500  7.163
6647640.500 249554.500  7.096
6647640.500 249555.500  6.921
6647640.500 249556.500  6.754
6647640.500 249557.500  6.629
6647640.500 249558.500  6.539
6647640.500 249559.500  6.468
6647640.500 249560.500  6.383
6647640.500 249561.500  6.257
6647640.500 249562.500  6.144
6647640.500 249563.500  6.047
6647640.500 249564.500  5.956
6647640.500 249565.500  5.864
6647640.500 249566.500  5.789
6647640.500 249567.500  5.722
6647640.500 249568.500  5.660
6647640.500 249569.500  5.596
6647640.500 249570.500  5.523
6647640.500 249571.500  5.475
6647640.500 249572.500  5.436
6647640.500 249573.500  5.385
6647640.500 249574.500  5.347
6647640.500 249575.500  5.317
6647640.500 249576.500  5.298
6647640.500 249577.500  5.300
6647640.500 249578.500  5.314
6647640.500 249579.500  5.284
6647640.500 249580.500  5.237
6647640.500 249581.500  5.218
6647640.500 249582.500  5.202
6647640.500 249583.500  5.190
6647640.500 249584.500  5.174
6647640.500 249585.500  5.153
6647640.500 249586.500  5.127
6647640.500 249587.500  5.116
6647640.500 249588.500  5.106
6647640.500 249589.500  5.037
6647640.500 249590.500  4.834
6647640.500 249591.500  4.504
6647640.500 249592.500  4.197
6647640.500 249593.500  4.064
6647640.500 249594.500  4.068
6647640.500 249595.500  4.115
6647640.500 249596.500  4.134
6647640.500 249597.500  4.128
6647640.500 249598.500  4.098
6647640.500 249599.500  4.057
6647640.500 249600.500  3.989
6647640.500 249601.500  3.908
6647640.500 249602.500  3.867
6647640.500 249603.500  3.839
6647640.500 249604.500  3.814
6647640.500 249605.500  3.811
6647640.500 249606.500  3.810
6647640.500 249607.500  3.814
6647640.500 249608.500  3.788
6647640.500 249609.500  3.747
6647640.500 249610.500  3.730
6647640.500 249611.500  3.703
6647640.500 249612.500  3.668
6647640.500 249613.500  3.635
6647640.500 249614.500  3.529
6647640.500 249615.500  3.209
6647640.500 249616.500  2.757
6647640.500 249617.500  2.409
6647640.500 249618.500  2.183
6647640.500 249619.500  1.954
6647640.500 249620.500  1.758
6647640.500 249621.500  1.574
6647640.500 249622.500  1.415
6647640.500 249623.500  1.262
6647640.500 249624.500  1.090
6647640.500 249625.500  0.871
6647640.500 249626.500  0.652
6647640.500 249627.500  0.422
6647640.500 249628.500  0.268
6647640.500 249629.500  0.067
6647640.500 249630.500 -0.145
6647640.500 249631.500 -0.220
6647640.500 249632.500 -0.232
6647640.500 249633.500 -0.247
6647640.500 249634.500 -0.258
6647640.500 249635.500 -0.274
6647640.500 249636.500 -0.329
6647640.500 249637.500 -0.362
6647640.500 249638.500 -0.286
6647640.500 249639.500 -0.249
6647640.500 249640.500 -0.244
6647640.500 249641.500 -0.236
6647640.500 249642.500 -0.241
6647640.500 249643.500 -0.254
6647640.500 249644.500 -0.262
6647640.500 249645.500 -0.283
6647640.500 249646.500 -0.301
6647640.500 249647.500 -0.289
6647640.500 249648.500 -0.241
6647640.500 249649.500 -0.211
6647640.500 249650.500 -0.220
6647640.500 249651.500 -0.230
6647640.500 249652.500 -0.222
6647640.500 249653.500 -0.210
6647640.500 249654.500 -0.207
6647640.500 249655.500 -0.241
6647640.500 249656.500 -0.243
6647640.500 249657.500 -0.236
6647640.500 249658.500 -0.233
6647640.500 249659.500 -0.232
6647640.500 249660.500 -0.232
6647640.500 249661.500 -0.233
6647640.500 249662.500 -0.235
6647640.500 249663.500 -0.249
6647640.500 249664.500 -0.292
6647640.500 249665.500 -0.293
6647640.500 249666.500 -0.283
6647640.500 249667.500 -0.273
6647640.500 249668.500 -0.269
6647640.500 249669.500 -0.271
6647640.500 249670.500 -0.285
6647640.500 249671.500 -0.253
6647640.500 249672.500 -0.261
6647640.500 249673.500 -0.270
6647640.500 249674.500 -0.252
6647640.500 249675.500 -0.256
6647640.500 249676.500 -0.227
6647640.500 249677.500 -0.215
6647640.500 249678.500 -0.232
6647640.500 249679.500 -0.252
6647640.500 249680.500 -0.274
6647640.500 249681.500 -0.277
6647640.500 249682.500 -0.284
6647640.500 249683.500 -0.301
6647640.500 249684.500 -0.241
6647640.500 249685.500  0.089
6647640.500 249686.500  0.938
6647640.500 249687.500  1.644
6647640.500 249688.500  1.990
6647640.500 249689.500  2.183
6647640.500 249690.500  2.226
6647640.500 249691.500  2.165
6647640.500 249692.500  2.100
6647640.500 249693.500  2.077
6647640.500 249694.500  2.067
6647640.500 249695.500  2.095
6647640.500 249696.500  2.108
6647640.500 249697.500  2.100
6647640.500 249698.500  2.149
6647640.500 249699.500  2.201
6647640.500 249700.500  2.284
6647640.500 249701.500  2.458
6647640.500 249702.500  2.693
6647640.500 249703.500  2.975
6647640.500 249704.500  3.296
6647640.500 249705.500  3.650
6647640.500 249706.500  4.031
6647640.500 249707.500  4.439
6647640.500 249708.500  4.873
6647640.500 249709.500  5.328
6647640.500 249710.500  5.788
6647640.500 249711.500  6.247
6647640.500 249712.500  6.698
6647640.500 249713.500  7.126
6647640.500 249714.500  7.503
6647640.500 249715.500  7.871
6647640.500 249716.500  7.958
6647640.500 249717.500  7.997
6647640.500 249718.500  8.028
6647640.500 249719.500  7.975
6647640.500 249720.500  7.905
6647640.500 249721.500  7.878
6647640.500 249722.500  7.901
6647640.500 249723.500  7.954
6647640.500 249724.500  7.940
6647640.500 249725.500  7.935
6647640.500 249726.500  7.915
6647640.500 249727.500  7.847
6647640.500 249728.500  7.798
6647640.500 249729.500  7.768
6647640.500 249730.500  7.780
6647640.500 249731.500  7.777
6647640.500 249732.500  7.764
6647640.500 249733.500  7.734
6647640.500 249734.500  7.699
6647640.500 249735.500  7.423
6647640.500 249736.500  7.138
6647640.500 249737.500  7.017
6647640.500 249738.500  6.986
6647640.500 249739.500  6.944
6647640.500 249740.500  6.904
6647640.500 249741.500  6.895
6647640.500 249742.500  6.927
6647640.500 249743.500  6.954
6647640.500 249744.500  6.993
6647640.500 249745.500  7.024
6647640.500 249746.500  6.809
6647640.500 249747.500  6.265
6647640.500 249748.500  6.013
6647640.500 249749.500  5.967
6647639.500 249500.500  9.739
6647639.500 249501.500  9.780
6647639.500 249502.500  9.820
6647639.500 249503.500  9.863
6647639.500 249504.500  9.926
6647639.500 249505.500 10.005
6647639.500 249506.500 10.042
6647639.500 249507.500 10.066
6647639.500 249508.500 10.042
6647639.500 249509.500 10.008
6647639.500 249510.500  9.958
6647639.500 249511.500  9.903
6647639.500 249512.500  9.847
6647639.500 249513.500  9.789
6647639.500 249514.500  9.731
6647639.500 249515.500  9.671
6647639.500 249516.500  9.611
6647639.500 249517.500  9.551
6647639.500 249518.500  9.490
6647639.500 249519.500  9.430
6647639.500 249520.500  9.368
6647639.500 249521.500  9.306
6647639.500 249522.500  9.243
6647639.500 249523.500  9.180
6647639.500 249524.500  9.115
6647639.500 249525.500  9.050
6647639.500 249526.500  8.985
6647639.500 249527.500  8.918
6647639.500 249528.500  8.851
6647639.500 249529.500  8.782
6647639.500 249530.500  8.714
6647639.500 249531.500  8.644
6647639.500 249532.500  8.575
6647639.500 249533.500  8.504
6647639.500 249534.500  8.433
6647639.500 249535.500  8.362
6647639.500 249536.500  8.291
6647639.500 249537.500  8.219
6647639.500 249538.500  8.147
6647639.500 249539.500  8.076
6647639.500 249540.500  8.004
6647639.500 249541.500  7.931
6647639.500 249542.500  7.858
6647639.500 249543.500  7.784
6647639.500 249544.500  7.708
6647639.500 249545.500  7.632
6647639.500 249546.500  7.553
6647639.500 249547.500  7.471
6647639.500 249548.500  7.394
6647639.500 249549.500  7.328
6647639.500 249550.500  7.279
6647639.500 249551.500  7.238
6647639.500 249552.500  7.214
6647639.500 249553.500  7.177
6647639.500 249554.500  7.035
6647639.500 249555.500  6.830
6647639.500 249556.500  6.719
6647639.500 249557.500  6.651
6647639.500 249558.500  6.572
6647639.500 249559.500  6.503
6647639.500 249560.500  6.406
6647639.500 249561.500  6.300
6647639.500 249562.500  6.161
6647639.500 249563.500  6.058
6647639.500 249564.500  5.983
6647639.500 249565.500  5.916
6647639.500 249566.500  5.853
6647639.500 249567.500  5.779
6647639.500 249568.500  5.695
6647639.500 249569.500  5.644
6647639.500 249570.500  5.590
6647639.500 249571.500  5.526
6647639.500 249572.500  5.476
6647639.500 249573.500  5.446
6647639.500 249574.500  5.424
6647639.500 249575.500  5.418
6647639.500 249576.500  5.420
6647639.500 249577.500  5.404
6647639.500 249578.500  5.379
6647639.500 249579.500  5.347
6647639.500 249580.500  5.313
6647639.500 249581.500  5.281
6647639.500 249582.500  5.253
6647639.500 249583.500  5.228
6647639.500 249584.500  5.208
6647639.500 249585.500  5.192
6647639.500 249586.500  5.162
6647639.500 249587.500  5.137
6647639.500 249588.500  5.117
6647639.500 249589.500  5.067
6647639.500 249590.500  4.884
6647639.500 249591.500  4.597
6647639.500 249592.500  4.312
6647639.500 249593.500  4.114
6647639.500 249594.500  4.058
6647639.500 249595.500  4.084
6647639.500 249596.500  4.113
6647639.500 249597.500  4.122
6647639.500 249598.500  4.095
6647639.500 249599.500  4.053
6647639.500 249600.500  4.011
6647639.500 249601.500  3.958
6647639.500 249602.500  3.898
6647639.500 249603.500  3.859
6647639.500 249604.500  3.868
6647639.500 249605.500  3.885
6647639.500 249606.500  3.850
6647639.500 249607.500  3.801
6647639.500 249608.500  3.761
6647639.500 249609.500  3.737
6647639.500 249610.500  3.737
6647639.500 249611.500  3.726
6647639.500 249612.500  3.696
6647639.500 249613.500  3.671
6647639.500 249614.500  3.560
6647639.500 249615.500  3.249
6647639.500 249616.500  2.806
6647639.500 249617.500  2.337
6647639.500 249618.500  1.916
6647639.500 249619.500  1.595
6647639.500 249620.500  1.372
6647639.500 249621.500  1.203
6647639.500 249622.500  1.030
6647639.500 249623.500  0.845
6647639.500 249624.500  0.649
6647639.500 249625.500  0.488
6647639.500 249626.500  0.351
6647639.500 249627.500  0.186
6647639.500 249628.500  0.079
6647639.500 249629.500 -0.005
6647639.500 249630.500 -0.122
6647639.500 249631.500 -0.214
6647639.500 249632.500 -0.252
6647639.500 249633.500 -0.275
6647639.500 249634.500 -0.283
6647639.500 249635.500 -0.285
6647639.500 249636.500 -0.293
6647639.500 249637.500 -0.295
6647639.500 249638.500 -0.276
6647639.500 249639.500 -0.270
6647639.500 249640.500 -0.290
6647639.500 249641.500 -0.267
6647639.500 249642.500 -0.241
6647639.500 249643.500 -0.228
6647639.500 249644.500 -0.222
6647639.500 249645.500 -0.255
6647639.500 249646.500 -0.285
6647639.500 249647.500 -0.310
6647639.500 249648.500 -0.339
6647639.500 249649.500 -0.305
6647639.500 249650.500 -0.259
6647639.500 249651.500 -0.270
6647639.500 249652.500 -0.254
6647639.500 249653.500 -0.220
6647639.500 249654.500 -0.218
6647639.500 249655.500 -0.249
6647639.500 249656.500 -0.253
6647639.500 249657.500 -0.245
6647639.500 249658.500 -0.240
6647639.500 249659.500 -0.236
6647639.500 249660.500 -0.233
6647639.500 249661.500 -0.231
6647639.500 249662.500 -0.230
6647639.500 249663.500 -0.241
6647639.500 249664.500 -0.282
6647639.500 249665.500 -0.298
6647639.500 249666.500 -0.282
6647639.500 249667.500 -0.260
6647639.500 249668.500 -0.246
6647639.500 249669.500 -0.229
6647639.500 249670.500 -0.231
6647639.500 249671.500 -0.248
6647639.500 249672.500 -0.274
6647639.500 249673.500 -0.275
6647639.500 249674.500 -0.271
6647639.500 249675.500 -0.273
6647639.500 249676.500 -0.253
6647639.500 249677.500 -0.229
6647639.500 249678.500 -0.209
6647639.500 249679.500 -0.215
6647639.500 249680.500 -0.251
6647639.500 249681.500 -0.263
6647639.500 249682.500 -0.277
6647639.500 249683.500 -0.298
6647639.500 249684.500 -0.316
6647639.500 249685.500 -0.238
6647639.500 249686.500  0.233
6647639.500 249687.500  0.984
6647639.500 249688.500  1.623
6647639.500 249689.500  2.029
6647639.500 249690.500  2.188
6647639.500 249691.500  2.222
6647639.500 249692.500  2.193
6647639.500 249693.500  2.113
6647639.500 249694.500  2.069
6647639.500 249695.500  2.086
6647639.500 249696.500  2.101
6647639.500 249697.500  2.109
6647639.500 249698.500  2.125
6647639.500 249699.500  2.172
6647639.500 249700.500  2.243
6647639.500 249701.500  2.378
6647639.500 249702.500  2.566
6647639.500 249703.500  2.800
6647639.500 249704.500  3.078
6647639.500 249705.500  3.392
6647639.500 249706.500  3.739
6647639.500 249707.500  4.119
6647639.500 249708.500  4.530
6647639.500 249709.500  4.973
6647639.500 249710.500  5.431
6647639.500 249711.500  5.892
6647639.500 249712.500  6.344
6647639.500 249713.500  6.756
6647639.500 249714.500  7.133
6647639.500 249715.500  7.508
6647639.500 249716.500  7.764
6647639.500 249717.500  7.913
6647639.500 249718.500  7.952
6647639.500 249719.500  7.931
6647639.500 249720.500  7.845
6647639.500 249721.500  7.791
6647639.500 249722.500  7.806
6647639.500 249723.500  7.915
6647639.500 249724.500  7.924
6647639.500 249725.500  7.871
6647639.500 249726.500  7.796
6647639.500 249727.500  7.743
6647639.500 249728.500  7.727
6647639.500 249729.500  7.693
6647639.500 249730.500  7.751
6647639.500 249731.500  7.822
6647639.500 249732.500  7.773
6647639.500 249733.500  7.597
6647639.500 249734.500  7.399
6647639.500 249735.500  7.125
6647639.500 249736.500  6.985
6647639.500 249737.500  6.962
6647639.500 249738.500  6.938
6647639.500 249739.500  6.824
6647639.500 249740.500  6.690
6647639.500 249741.500  6.508
6647639.500 249742.500  6.465
6647639.500 249743.500  6.508
6647639.500 249744.500  6.563
6647639.500 249745.500  6.569
6647639.500 249746.500  6.236
6647639.500 249747.500  5.981
6647639.500 249748.500  5.940
6647639.500 249749.500  5.955
6647638.500 249500.500  9.749
6647638.500 249501.500  9.745
6647638.500 249502.500  9.779
6647638.500 249503.500  9.825
6647638.500 249504.500  9.893
6647638.500 249505.500  9.947
6647638.500 249506.500 10.004
6647638.500 249507.500 10.028
6647638.500 249508.500 10.044
6647638.500 249509.500 10.043
6647638.500 249510.500  9.998
6647638.500 249511.500  9.940
6647638.500 249512.500  9.883
6647638.500 249513.500  9.825
6647638.500 249514.500  9.766
6647638.500 249515.500  9.706
6647638.500 249516.500  9.645
6647638.500 249517.500  9.585
6647638.500 249518.500  9.524
6647638.500 249519.500  9.463
6647638.500 249520.500  9.402
6647638.500 249521.500  9.340
6647638.500 249522.500  9.277
6647638.500 249523.500  9.213
6647638.500 249524.500  9.149
6647638.500 249525.500  9.084
6647638.500 249526.500  9.018
6647638.500 249527.500  8.951
6647638.500 249528.500  8.884
6647638.500 249529.500  8.816
6647638.500 249530.500  8.747
6647638.500 249531.500  8.678
6647638.500 249532.500  8.608
6647638.500 249533.500  8.537
6647638.500 249534.500  8.466
6647638.500 249535.500  8.394
6647638.500 249536.500  8.322
6647638.500 249537.500  8.250
6647638.500 249538.500  8.177
6647638.500 249539.500  8.104
6647638.500 249540.500  8.031
6647638.500 249541.500  7.957
6647638.500 249542.500  7.882
6647638.500 249543.500  7.806
6647638.500 249544.500  7.728
6647638.500 249545.500  7.647
6647638.500 249546.500  7.563
6647638.500 249547.500  7.477
6647638.500 249548.500  7.395
6647638.500 249549.500  7.330
6647638.500 249550.500  7.281
6647638.500 249551.500  7.231
6647638.500 249552.500  7.195
6647638.500 249553.500  7.083
6647638.500 249554.500  6.936
6647638.500 249555.500  6.810
6647638.500 249556.500  6.755
6647638.500 249557.500  6.697
6647638.500 249558.500  6.590
6647638.500 249559.500  6.509
6647638.500 249560.500  6.446
6647638.500 249561.500  6.316
6647638.500 249562.500  6.185
6647638.500 249563.500  6.092
6647638.500 249564.500  6.036
6647638.500 249565.500  5.982
6647638.500 249566.500  5.914
6647638.500 249567.500  5.833
6647638.500 249568.500  5.761
6647638.500 249569.500  5.700
6647638.500 249570.500  5.621
6647638.500 249571.500  5.555
6647638.500 249572.500  5.541
6647638.500 249573.500  5.540
6647638.500 249574.500  5.550
6647638.500 249575.500  5.554
6647638.500 249576.500  5.541
6647638.500 249577.500  5.499
6647638.500 249578.500  5.451
6647638.500 249579.500  5.408
6647638.500 249580.500  5.367
6647638.500 249581.500  5.331
6647638.500 249582.500  5.299
6647638.500 249583.500  5.271
6647638.500 249584.500  5.250
6647638.500 249585.500  5.243
6647638.500 249586.500  5.194
6647638.500 249587.500  5.159
6647638.500 249588.500  5.135
6647638.500 249589.500  5.110
6647638.500 249590.500  4.966
6647638.500 249591.500  4.754
6647638.500 249592.500  4.526
6647638.500 249593.500  4.238
6647638.500 249594.500  4.072
6647638.500 249595.500  4.063
6647638.500 249596.500  4.111
6647638.500 249597.500  4.133
6647638.500 249598.500  4.116
6647638.500 249599.500  4.083
6647638.500 249600.500  4.055
6647638.500 249601.500  4.026
6647638.500 249602.500  3.965
6647638.500 249603.500  3.921
6647638.500 249604.500  3.948
6647638.500 249605.500  3.965
6647638.500 249606.500  3.899
6647638.500 249607.500  3.812
6647638.500 249608.500  3.758
6647638.500 249609.500  3.740
6647638.500 249610.500  3.739
6647638.500 249611.500  3.746
6647638.500 249612.500  3.735
6647638.500 249613.500  3.724
6647638.500 249614.500  3.668
6647638.500 249615.500  3.390
6647638.500 249616.500  2.918
6647638.500 249617.500  2.364
6647638.500 249618.500  1.821
6647638.500 249619.500  1.383
6647638.500 249620.500  1.083
6647638.500 249621.500  0.851
6647638.500 249622.500  0.633
6647638.500 249623.500  0.480
6647638.500 249624.500  0.375
6647638.500 249625.500  0.247
6647638.500 249626.500  0.125
6647638.500 249627.500  0.048
6647638.500 249628.500  0.004
6647638.500 249629.500 -0.035
6647638.500 249630.500 -0.105
6647638.500 249631.500 -0.193
6647638.500 249632.500 -0.256
6647638.500 249633.500 -0.282
6647638.500 249634.500 -0.285
6647638.500 249635.500 -0.282
6647638.500 249636.500 -0.277
6647638.500 249637.500 -0.269
6647638.500 249638.500 -0.265
6647638.500 249639.500 -0.309
6647638.500 249640.500 -0.345
6647638.500 249641.500 -0.301
6647638.500 249642.500 -0.256
6647638.500 249643.500 -0.200
6647638.500 249644.500 -0.189
6647638.500 249645.500 -0.256
6647638.500 249646.500 -0.281
6647638.500 249647.500 -0.287
6647638.500 249648.500 -0.361
6647638.500 249649.500 -0.416
6647638.500 249650.500 -0.381
6647638.500 249651.500 -0.364
6647638.500 249652.500 -0.319
6647638.500 249653.500 -0.255
6647638.500 249654.500 -0.240
6647638.500 249655.500 -0.250
6647638.500 249656.500 -0.254
6647638.500 249657.500 -0.248
6647638.500 249658.500 -0.242
6647638.500 249659.500 -0.235
6647638.500 249660.500 -0.232
6647638.500 249661.500 -0.230
6647638.500 249662.500 -0.228
6647638.500 249663.500 -0.234
6647638.500 249664.500 -0.264
6647638.500 249665.500 -0.288
6647638.500 249666.500 -0.275
6647638.500 249667.500 -0.247
6647638.500 249668.500 -0.217
6647638.500 249669.500 -0.196
6647638.500 249670.500 -0.235
6647638.500 249671.500 -0.240
6647638.500 249672.500 -0.244
6647638.500 249673.500 -0.247
6647638.500 249674.500 -0.257
6647638.500 249675.500 -0.262
6647638.500 249676.500 -0.253
6647638.500 249677.500 -0.235
6647638.500 249678.500 -0.214
6647638.500 249679.500 -0.222
6647638.500 249680.500 -0.288
6647638.500 249681.500 -0.269
6647638.500 249682.500 -0.273
6647638.500 249683.500 -0.287
6647638.500 249684.500 -0.285
6647638.500 249685.500 -0.258
6647638.500 249686.500 -0.122
6647638.500 249687.500  0.285
6647638.500 249688.500  0.973
6647638.500 249689.500  1.608
6647638.500 249690.500  1.979
6647638.500 249691.500  2.172
6647638.500 249692.500  2.218
6647638.500 249693.500  2.170
6647638.500 249694.500  2.100
6647638.500 249695.500  2.082
6647638.500 249696.500  2.102
6647638.500 249697.500  2.113
6647638.500 249698.500  2.119
6647638.500 249699.500  2.150
6647638.500 249700.500  2.205
6647638.500 249701.500  2.306
6647638.500 249702.500  2.453
6647638.500 249703.500  2.642
6647638.500 249704.500  2.875
6647638.500 249705.500  3.146
6647638.500 249706.500  3.456
6647638.500 249707.500  3.806
6647638.500 249708.500  4.194
6647638.500 249709.500  4.621
6647638.500 249710.500  5.078
6647638.500 249711.500  5.545
6647638.500 249712.500  5.998
6647638.500 249713.500  6.376
6647638.500 249714.500  6.773
6647638.500 249715.500  7.111
6647638.500 249716.500  7.339
6647638.500 249717.500  7.509
6647638.500 249718.500  7.733
6647638.500 249719.500  7.827
6647638.500 249720.500  7.719
6647638.500 249721.500  7.687
6647638.500 249722.500  7.733
6647638.500 249723.500  7.807
6647638.500 249724.500  7.848
6647638.500 249725.500  7.796
6647638.500 249726.500  7.688
6647638.500 249727.500  7.634
6647638.500 249728.500  7.683
6647638.500 249729.500  7.665
6647638.500 249730.500  7.846
6647638.500 249731.500  7.860
6647638.500 249732.500  7.695
6647638.500 249733.500  7.351
6647638.500 249734.500  6.997
6647638.500 249735.500  6.842
6647638.500 249736.500  6.904
6647638.500 249737.500  6.895
6647638.500 249738.500  6.773
6647638.500 249739.500  6.622
6647638.500 249740.500  6.459
6647638.500 249741.500  6.220
6647638.500 249742.500  6.076
6647638.500 249743.500  6.072
6647638.500 249744.500  6.139
6647638.500 249745.500  6.199
6647638.500 249746.500  6.034
6647638.500 249747.500  5.964
6647638.500 249748.500  5.973
6647638.500 249749.500  5.961
6647637.500 249500.500  9.745
6647637.500 249501.500  9.743
6647637.500 249502.500  9.747
6647637.500 249503.500  9.775
6647637.500 249504.500  9.827
6647637.500 249505.500  9.858
6647637.500 249506.500  9.952
6647637.500 249507.500  9.996
6647637.500 249508.500 10.029
6647637.500 249509.500 10.059
6647637.500 249510.500 10.044
6647637.500 249511.500  9.983
6647637.500 249512.500  9.922
6647637.500 249513.500  9.862
6647637.500 249514.500  9.802
6647637.500 249515.500  9.741
6647637.500 249516.500  9.680
6647637.500 249517.500  9.620
6647637.500 249518.500  9.559
6647637.500 249519.500  9.498
6647637.500 249520.500  9.436
6647637.500 249521.500  9.374
6647637.500 249522.500  9.311
6647637.500 249523.500  9.248
6647637.500 249524.500  9.183
6647637.500 249525.500  9.118
6647637.500 249526.500  9.053
6647637.500 249527.500  8.986
6647637.500 249528.500  8.919
6647637.500 249529.500  8.851
6647637.500 249530.500  8.782
6647637.500 249531.500  8.712
6647637.500 249532.500  8.642
6647637.500 249533.500  8.571
6647637.500 249534.500  8.500
6647637.500 249535.500  8.427
6647637.500 249536.500  8.354
6647637.500 249537.500  8.281
6647637.500 249538.500  8.207
6647637.500 249539.500  8.133
6647637.500 249540.500  8.058
6647637.500 249541.500  7.983
6647637.500 249542.500  7.907
6647637.500 249543.500  7.828
6647637.500 249544.500  7.747
6647637.500 249545.500  7.662
6647637.500 249546.500  7.571
6647637.500 249547.500  7.478
6647637.500 249548.500  7.390
6647637.500 249549.500  7.328
6647637.500 249550.500  7.260
6647637.500 249551.500  7.133
6647637.500 249552.500  7.116
6647637.500 249553.500  7.020
6647637.500 249554.500  6.921
6647637.500 249555.500  6.823
6647637.500 249556.500  6.766
6647637.500 249557.500  6.652
6647637.500 249558.500  6.541
6647637.500 249559.500  6.456
6647637.500 249560.500  6.414
6647637.500 249561.500  6.307
6647637.500 249562.500  6.223
6647637.500 249563.500  6.173
6647637.500 249564.500  6.105
6647637.500 249565.500  6.044
6647637.500 249566.500  5.966
6647637.500 249567.500  5.882
6647637.500 249568.500  5.815
6647637.500 249569.500  5.758
6647637.500 249570.500  5.701
6647637.500 249571.500  5.663
6647637.500 249572.500  5.654
6647637.500 249573.500  5.679
6647637.500 249574.500  5.662
6647637.500 249575.500  5.645
6647637.500 249576.500  5.602
6647637.500 249577.500  5.550
6647637.500 249578.500  5.499
6647637.500 249579.500  5.452
6647637.500 249580.500  5.408
6647637.500 249581.500  5.367
6647637.500 249582.500  5.331
6647637.500 249583.500  5.301
6647637.500 249584.500  5.280
6647637.500 249585.500  5.272
6647637.500 249586.500  5.220
6647637.500 249587.500  5.181
6647637.500 249588.500  5.163
6647637.500 249589.500  5.143
6647637.500 249590.500  5.009
6647637.500 249591.500  4.798
6647637.500 249592.500  4.594
6647637.500 249593.500  4.292
6647637.500 249594.500  4.088
6647637.500 249595.500  4.059
6647637.500 249596.500  4.113
6647637.500 249597.500  4.143
6647637.500 249598.500  4.114
6647637.500 249599.500  4.088
6647637.500 249600.500  4.080
6647637.500 249601.500  4.054
6647637.500 249602.500  4.010
6647637.500 249603.500  3.979
6647637.500 249604.500  3.991
6647637.500 249605.500  3.982
6647637.500 249606.500  3.955
6647637.500 249607.500  3.847
6647637.500 249608.500  3.780
6647637.500 249609.500  3.761
6647637.500 249610.500  3.760
6647637.500 249611.500  3.764
6647637.500 249612.500  3.762
6647637.500 249613.500  3.721
6647637.500 249614.500  3.687
6647637.500 249615.500  3.480
6647637.500 249616.500  3.045
6647637.500 249617.500  2.473
6647637.500 249618.500  1.891
6647637.500 249619.500  1.376
6647637.500 249620.500  0.984
6647637.500 249621.500  0.699
6647637.500 249622.500  0.482
6647637.500 249623.500  0.365
6647637.500 249624.500  0.278
6647637.500 249625.500  0.165
6647637.500 249626.500  0.088
6647637.500 249627.500  0.031
6647637.500 249628.500 -0.011
6647637.500 249629.500 -0.058
6647637.500 249630.500 -0.104
6647637.500 249631.500 -0.168
6647637.500 249632.500 -0.238
6647637.500 249633.500 -0.275
6647637.500 249634.500 -0.281
6647637.500 249635.500 -0.274
6647637.500 249636.500 -0.268
6647637.500 249637.500 -0.262
6647637.500 249638.500 -0.259
6647637.500 249639.500 -0.274
6647637.500 249640.500 -0.282
6647637.500 249641.500 -0.261
6647637.500 249642.500 -0.235
6647637.500 249643.500 -0.179
6647637.500 249644.500 -0.185
6647637.500 249645.500 -0.257
6647637.500 249646.500 -0.253
6647637.500 249647.500 -0.239
6647637.500 249648.500 -0.278
6647637.500 249649.500 -0.325
6647637.500 249650.500 -0.328
6647637.500 249651.500 -0.315
6647637.500 249652.500 -0.286
6647637.500 249653.500 -0.252
6647637.500 249654.500 -0.247
6647637.500 249655.500 -0.247
6647637.500 249656.500 -0.242
6647637.500 249657.500 -0.235
6647637.500 249658.500 -0.232
6647637.500 249659.500 -0.230
6647637.500 249660.500 -0.230
6647637.500 249661.500 -0.230
6647637.500 249662.500 -0.231
6647637.500 249663.500 -0.237
6647637.500 249664.500 -0.253
6647637.500 249665.500 -0.270
6647637.500 249666.500 -0.269
6647637.500 249667.500 -0.254
6647637.500 249668.500 -0.236
6647637.500 249669.500 -0.232
6647637.500 249670.500 -0.262
6647637.500 249671.500 -0.284
6647637.500 249672.500 -0.289
6647637.500 249673.500 -0.277
6647637.500 249674.500 -0.264
6647637.500 249675.500 -0.250
6647637.500 249676.500 -0.232
6647637.500 249677.500 -0.220
6647637.500 249678.500 -0.250
6647637.500 249679.500 -0.294
6647637.500 249680.500 -0.286
6647637.500 249681.500 -0.272
6647637.500 249682.500 -0.264
6647637.500 249683.500 -0.249
6647637.500 249684.500 -0.240
6647637.500 249685.500 -0.255
6647637.500 249686.500 -0.223
6647637.500 249687.500 -0.141
6647637.500 249688.500  0.233
6647637.500 249689.500  0.928
6647637.500 249690.500  1.544
6647637.500 249691.500  1.979
6647637.500 249692.500  2.199
6647637.500 249693.500  2.235
6647637.500 249694.500  2.188
6647637.500 249695.500  2.140
6647637.500 249696.500  2.129
6647637.500 249697.500  2.121
6647637.500 249698.500  2.118
6647637.500 249699.500  2.135
6647637.500 249700.500  2.172
6647637.500 249701.500  2.242
6647637.500 249702.500  2.351
6647637.500 249703.500  2.499
6647637.500 249704.500  2.686
6647637.500 249705.500  2.914
6647637.500 249706.500  3.182
6647637.500 249707.500  3.496
6647637.500 249708.500  3.858
6647637.500 249709.500  4.270
6647637.500 249710.500  4.728
6647637.500 249711.500  5.210
6647637.500 249712.500  5.672
6647637.500 249713.500  6.010
6647637.500 249714.500  6.317
6647637.500 249715.500  6.671
6647637.500 249716.500  6.940
6647637.500 249717.500  7.204
6647637.500 249718.500  7.452
6647637.500 249719.500  7.594
6647637.500 249720.500  7.561
6647637.500 249721.500  7.559
6647637.500 249722.500  7.610
6647637.500 249723.500  7.696
6647637.500 249724.500  7.752
6647637.500 249725.500  7.745
6647637.500 249726.500  7.666
6647637.500 249727.500  7.630
6647637.500 249728.500  7.651
6647637.500 249729.500  7.735
6647637.500 249730.500  7.810
6647637.500 249731.500  7.687
6647637.500 249732.500  7.392
6647637.500 249733.500  6.925
6647637.500 249734.500  6.487
6647637.500 249735.500  6.555
6647637.500 249736.500  6.656
6647637.500 249737.500  6.567
6647637.500 249738.500  6.459
6647637.500 249739.500  6.343
6647637.500 249740.500  6.198
6647637.500 249741.500  5.984
6647637.500 249742.500  5.824
6647637.500 249743.500  5.778
6647637.500 249744.500  5.808
6647637.500 249745.500  5.857
6647637.500 249746.500  5.944
6647637.500 249747.500  6.021
6647637.500 249748.500  6.060
6647637.500 249749.500  6.064
6647636.500 249500.500  9.748
6647636.500 249501.500  9.751
6647636.500 249502.500  9.745
6647636.500 249503.500  9.748
6647636.500 249504.500  9.806
6647636.500 249505.500  9.894
6647636.500 249506.500  9.957
6647636.500 249507.500  9.987
6647636.500 249508.500 10.011
6647636.500 249509.500 10.044
6647636.500 249510.500 10.070
6647636.500 249511.500 10.031
6647636.500 249512.500  9.966
6647636.500 249513.500  9.903
6647636.500 249514.500  9.840
6647636.500 249515.500  9.778
6647636.500 249516.500  9.717
6647636.500 249517.500  9.656
6647636.500 249518.500  9.595
6647636.500 249519.500  9.533
6647636.500 249520.500  9.472
6647636.500 249521.500  9.410
6647636.500 249522.500  9.347
6647636.500 249523.500  9.283
6647636.500 249524.500  9.219
6647636.500 249525.500  9.154
6647636.500 249526.500  9.089
6647636.500 249527.500  9.022
6647636.500 249528.500  8.955
6647636.500 249529.500  8.887
6647636.500 249530.500  8.818
6647636.500 249531.500  8.748
6647636.500 249532.500  8.678
6647636.500 249533.500  8.606
6647636.500 249534.500  8.534
6647636.500 249535.500  8.461
6647636.500 249536.500  8.387
6647636.500 249537.500  8.312
6647636.500 249538.500  8.237
6647636.500 249539.500  8.162
6647636.500 249540.500  8.087
6647636.500 249541.500  8.010
6647636.500 249542.500  7.932
6647636.500 249543.500  7.852
6647636.500 249544.500  7.767
6647636.500 249545.500  7.676
6647636.500 249546.500  7.577
6647636.500 249547.500  7.477
6647636.500 249548.500  7.388
6647636.500 249549.500  7.333
6647636.500 249550.500  7.205
6647636.500 249551.500  7.094
6647636.500 249552.500  7.071
6647636.500 249553.500  7.005
6647636.500 249554.500  6.922
6647636.500 249555.500  6.819
6647636.500 249556.500  6.744
6647636.500 249557.500  6.641
6647636.500 249558.500  6.561
6647636.500 249559.500  6.472
6647636.500 249560.500  6.384
6647636.500 249561.500  6.332
6647636.500 249562.500  6.280
6647636.500 249563.500  6.226
6647636.500 249564.500  6.154
6647636.500 249565.500  6.086
6647636.500 249566.500  5.995
6647636.500 249567.500  5.925
6647636.500 249568.500  5.862
6647636.500 249569.500  5.821
6647636.500 249570.500  5.797
6647636.500 249571.500  5.754
6647636.500 249572.500  5.788
6647636.500 249573.500  5.780
6647636.500 249574.500  5.743
6647636.500 249575.500  5.702
6647636.500 249576.500  5.648
6647636.500 249577.500  5.593
6647636.500 249578.500  5.540
6647636.500 249579.500  5.489
6647636.500 249580.500  5.441
6647636.500 249581.500  5.397
6647636.500 249582.500  5.356
6647636.500 249583.500  5.321
6647636.500 249584.500  5.294
6647636.500 249585.500  5.281
6647636.500 249586.500  5.232
6647636.500 249587.500  5.191
6647636.500 249588.500  5.161
6647636.500 249589.500  5.152
6647636.500 249590.500  5.065
6647636.500 249591.500  4.816
6647636.500 249592.500  4.597
6647636.500 249593.500  4.321
6647636.500 249594.500  4.094
6647636.500 249595.500  4.065
6647636.500 249596.500  4.132
6647636.500 249597.500  4.152
6647636.500 249598.500  4.119
6647636.500 249599.500  4.093
6647636.500 249600.500  4.096
6647636.500 249601.500  4.053
6647636.500 249602.500  4.021
6647636.500 249603.500  4.003
6647636.500 249604.500  3.986
6647636.500 249605.500  3.967
6647636.500 249606.500  3.966
6647636.500 249607.500  3.929
6647636.500 249608.500  3.838
6647636.500 249609.500  3.782
6647636.500 249610.500  3.775
6647636.500 249611.500  3.778
6647636.500 249612.500  3.772
6647636.500 249613.500  3.748
6647636.500 249614.500  3.710
6647636.500 249615.500  3.565
6647636.500 249616.500  3.196
6647636.500 249617.500  2.663
6647636.500 249618.500  2.090
6647636.500 249619.500  1.536
6647636.500 249620.500  1.068
6647636.500 249621.500  0.715
6647636.500 249622.500  0.465
6647636.500 249623.500  0.332
6647636.500 249624.500  0.256
6647636.500 249625.500  0.155
6647636.500 249626.500  0.078
6647636.500 249627.500  0.028
6647636.500 249628.500 -0.026
6647636.500 249629.500 -0.067
6647636.500 249630.500 -0.100
6647636.500 249631.500 -0.168
6647636.500 249632.500 -0.255
6647636.500 249633.500 -0.283
6647636.500 249634.500 -0.274
6647636.500 249635.500 -0.266
6647636.500 249636.500 -0.259
6647636.500 249637.500 -0.248
6647636.500 249638.500 -0.234
6647636.500 249639.500 -0.216
6647636.500 249640.500 -0.180
6647636.500 249641.500 -0.192
6647636.500 249642.500 -0.230
6647636.500 249643.500 -0.223
6647636.500 249644.500 -0.222
6647636.500 249645.500 -0.237
6647636.500 249646.500 -0.205
6647636.500 249647.500 -0.186
6647636.500 249648.500 -0.198
6647636.500 249649.500 -0.224
6647636.500 249650.500 -0.235
6647636.500 249651.500 -0.226
6647636.500 249652.500 -0.225
6647636.500 249653.500 -0.230
6647636.500 249654.500 -0.244
6647636.500 249655.500 -0.246
6647636.500 249656.500 -0.223
6647636.500 249657.500 -0.206
6647636.500 249658.500 -0.213
6647636.500 249659.500 -0.223
6647636.500 249660.500 -0.229
6647636.500 249661.500 -0.232
6647636.500 249662.500 -0.235
6647636.500 249663.500 -0.242
6647636.500 249664.500 -0.253
6647636.500 249665.500 -0.262
6647636.500 249666.500 -0.262
6647636.500 249667.500 -0.257
6647636.500 249668.500 -0.248
6647636.500 249669.500 -0.243
6647636.500 249670.500 -0.263
6647636.500 249671.500 -0.314
6647636.500 249672.500 -0.347
6647636.500 249673.500 -0.316
6647636.500 249674.500 -0.276
6647636.500 249675.500 -0.253
6647636.500 249676.500 -0.227
6647636.500 249677.500 -0.214
6647636.500 249678.500 -0.235
6647636.500 249679.500 -0.251
6647636.500 249680.500 -0.258
6647636.500 249681.500 -0.273
6647636.500 249682.500 -0.264
6647636.500 249683.500 -0.236
6647636.500 249684.500 -0.237
6647636.500 249685.500 -0.255
6647636.500 249686.500 -0.236
6647636.500 249687.500 -0.231
6647636.500 249688.500 -0.139
6647636.500 249689.500  0.285
6647636.500 249690.500  0.957
6647636.500 249691.500  1.591
6647636.500 249692.500  2.070
6647636.500 249693.500  2.213
6647636.500 249694.500  2.196
6647636.500 249695.500  2.147
6647636.500 249696.500  2.126
6647636.500 249697.500  2.116
6647636.500 249698.500  2.111
6647636.500 249699.500  2.119
6647636.500 249700.500  2.142
6647636.500 249701.500  2.187
6647636.500 249702.500  2.263
6647636.500 249703.500  2.371
6647636.500 249704.500  2.515
6647636.500 249705.500  2.695
6647636.500 249706.500  2.916
6647636.500 249707.500  3.186
6647636.500 249708.500  3.517
6647636.500 249709.500  3.910
6647636.500 249710.500  4.364
6647636.500 249711.500  4.853
6647636.500 249712.500  5.306
6647636.500 249713.500  5.619
6647636.500 249714.500  5.916
6647636.500 249715.500  6.231
6647636.500 249716.500  6.519
6647636.500 249717.500  6.817
6647636.500 249718.500  7.099
6647636.500 249719.500  7.302
6647636.500 249720.500  7.397
6647636.500 249721.500  7.422
6647636.500 249722.500  7.465
6647636.500 249723.500  7.580
6647636.500 249724.500  7.645
6647636.500 249725.500  7.646
6647636.500 249726.500  7.641
6647636.500 249727.500  7.625
6647636.500 249728.500  7.630
6647636.500 249729.500  7.668
6647636.500 249730.500  7.570
6647636.500 249731.500  7.239
6647636.500 249732.500  6.853
6647636.500 249733.500  6.482
6647636.500 249734.500  6.358
6647636.500 249735.500  6.351
6647636.500 249736.500  6.349
6647636.500 249737.500  6.301
6647636.500 249738.500  6.225
6647636.500 249739.500  6.130
6647636.500 249740.500  6.009
6647636.500 249741.500  5.854
6647636.500 249742.500  5.741
6647636.500 249743.500  5.714
6647636.500 249744.500  5.702
6647636.500 249745.500  5.801
6647636.500 249746.500  5.966
6647636.500 249747.500  6.017
6647636.500 249748.500  6.065
6647636.500 249749.500  6.121
6647635.500 249500.500  9.752
6647635.500 249501.500  9.747
6647635.500 249502.500  9.750
6647635.500 249503.500  9.750
6647635.500 249504.500  9.782
6647635.500 249505.500  9.852
6647635.500 249506.500  9.899
6647635.500 249507.500  9.936
6647635.500 249508.500  9.987
6647635.500 249509.500 10.020
6647635.500 249510.500 10.059
6647635.500 249511.500 10.070
6647635.500 249512.500 10.014
6647635.500 249513.500  9.949
6647635.500 249514.500  9.883
6647635.500 249515.500  9.819
6647635.500 249516.500  9.756
6647635.500 249517.500  9.694
6647635.500 249518.500  9.633
6647635.500 249519.500  9.571
6647635.500 249520.500  9.509
6647635.500 249521.500  9.447
6647635.500 249522.500  9.384
6647635.500 249523.500  9.321
6647635.500 249524.500  9.257
6647635.500 249525.500  9.192
6647635.500 249526.500  9.126
6647635.500 249527.500  9.060
6647635.500 249528.500  8.993
6647635.500 249529.500  8.925
6647635.500 249530.500  8.856
6647635.500 249531.500  8.786
6647635.500 249532.500  8.715
6647635.500 249533.500  8.643
6647635.500 249534.500  8.570
6647635.500 249535.500  8.496
6647635.500 249536.500  8.421
6647635.500 249537.500  8.344
6647635.500 249538.500  8.268
6647635.500 249539.500  8.191
6647635.500 249540.500  8.115
6647635.500 249541.500  8.038
6647635.500 249542.500  7.959
6647635.500 249543.500  7.876
6647635.500 249544.500  7.787
6647635.500 249545.500  7.689
6647635.500 249546.500  7.582
6647635.500 249547.500  7.479
6647635.500 249548.500  7.412
6647635.500 249549.500  7.320
6647635.500 249550.500  7.224
6647635.500 249551.500  7.146
6647635.500 249552.500  7.094
6647635.500 249553.500  7.024
6647635.500 249554.500  6.908
6647635.500 249555.500  6.796
6647635.500 249556.500  6.738
6647635.500 249557.500  6.677
6647635.500 249558.500  6.585
6647635.500 249559.500  6.517
6647635.500 249560.500  6.463
6647635.500 249561.500  6.404
6647635.500 249562.500  6.345
6647635.500 249563.500  6.268
6647635.500 249564.500  6.195
6647635.500 249565.500  6.118
6647635.500 249566.500  6.032
6647635.500 249567.500  5.965
6647635.500 249568.500  5.922
6647635.500 249569.500  5.918
6647635.500 249570.500  5.914
6647635.500 249571.500  5.914
6647635.500 249572.500  5.927
6647635.500 249573.500  5.871
6647635.500 249574.500  5.812
6647635.500 249575.500  5.751
6647635.500 249576.500  5.692
6647635.500 249577.500  5.634
6647635.500 249578.500  5.578
6647635.500 249579.500  5.524
6647635.500 249580.500  5.472
6647635.500 249581.500  5.423
6647635.500 249582.500  5.378
6647635.500 249583.500  5.338
6647635.500 249584.500  5.303
6647635.500 249585.500  5.280
6647635.500 249586.500  5.236
6647635.500 249587.500  5.201
6647635.500 249588.500  5.171
6647635.500 249589.500  5.158
6647635.500 249590.500  5.085
6647635.500 249591.500  4.889
6647635.500 249592.500  4.753
6647635.500 249593.500  4.433
6647635.500 249594.500  4.112
6647635.500 249595.500  4.046
6647635.500 249596.500  4.169
6647635.500 249597.500  4.172
6647635.500 249598.500  4.146
6647635.500 249599.500  4.121
6647635.500 249600.500  4.117
6647635.500 249601.500  4.065
